# .PCD v0.7 - Point Cloud Data file format
VERSION 0.7
FIELDS x y z intensity
SIZE 4 4 4 4
TYPE F F F F
COUNT 1 1 1 1
WIDTH 1360
HEIGHT 1
VIEWPOINT 0 0 0 1 0 0 0
POINTS 1360
DATA ascii
-13.423261 142.70485 -1.5880781 255
-13.337718 142.73286 -1.5863554 255
-11.052461 142.73488 -1.5849364 255
-10.972013 142.7458 -1.5853897 255
7.1931562 142.74683 -1.5756583 255
7.233583 142.77556 -1.5664288 255
9.5406857 142.74756 -1.545776 255
9.6301928 142.66399 -1.5500612 255
11.776779 142.65366 -1.5566549 255
11.84858 142.68259 -1.5654849 255
14.152947 142.75616 -1.5415266 255
14.25963 142.65982 -1.5471513 255
16.344864 142.66034 -1.5375525 255
16.52109 142.67859 -1.5405126 255
16.614431 142.64218 -1.5449054 255
18.778206 142.72922 -1.5374278 255
18.858061 142.73953 -1.5648298 255
20.974222 142.66493 -1.5481862 255
21.048204 142.73863 -1.5546162 255
23.357183 142.68951 -1.5204738 255
23.471197 142.65703 -1.5344051 255
25.587372 142.68004 -1.5344164 255
25.692469 142.63306 -1.5501462 255
27.933811 142.74385 -1.5370361 255
28.01063 142.73296 -1.5397485 255
30.17635 142.72406 -1.5474639 255
30.286289 142.68089 -1.5252017 255
32.390358 142.64503 -1.5196846 255
32.573086 142.72224 -1.5445247 255
32.666962 142.69273 -1.5361464 255
34.747391 142.70668 -1.5323652 255
34.901241 142.66666 -1.549745 255
36.988869 142.65176 -1.520337 255
37.162678 142.65852 -1.5261643 255
37.219894 142.74652 -1.5284647 255
39.172493 142.6609 -1.5522218 255
39.342384 142.67511 -1.5515159 255
39.410038 142.76833 -1.548869 255
41.564281 142.73744 -1.5469166 255
41.639153 142.74423 -1.5452968 255
43.976227 142.78432 -1.5959916 255
44.100689 142.70006 -1.5483325 255
44.207813 142.685 -1.5249474 255
46.366798 142.73911 -1.5254571 255
46.498302 142.6403 -1.5471622 255
48.700706 142.72554 -1.5422467 255
48.824402 142.6458 -1.5360366 255
50.91378 142.72295 -1.5239381 255
51.030586 142.65187 -1.5478246 255
53.199928 142.70517 -1.5285348 255
53.254898 142.71896 -1.5491935 255
55.389584 142.67392 -1.5148656 255
55.523624 142.7442 -1.5352688 255
55.606609 142.77551 -1.5423603 255
57.791283 142.61383 -1.552088 255
57.840549 142.7114 -1.5513476 255
60.147217 142.75029 -1.541775 255
60.266109 142.66098 -1.5197548 255
62.527161 142.69095 -1.5385811 255
64.769096 142.62389 -1.540094 255
64.826942 142.70389 -1.5446223 255
66.928566 142.69562 -1.5462137 255
67.063385 142.70021 -1.5510961 255
69.133202 142.67586 -1.5324392 255
69.272011 142.69435 -1.5585587 255
71.593445 142.69571 -1.5602268 255
73.728943 142.7292 -1.5418169 255
83.523895 142.72668 -1.5717283 255
83.69677 142.67917 -1.5711656 255
83.80278 142.73418 -1.5772572 255
84.576828 142.61636 -1.572582 255
84.652557 142.65094 -1.5924269 255
84.847275 142.68839 -1.5866203 255
85.133705 142.74971 -1.5876851 255
85.303558 142.68352 -1.5908104 255
85.471893 142.64281 -1.5844059 255
-85.064995 142.87148 -1.5860944 255
-84.970009 142.84972 -1.5398598 255
-75.409889 142.89307 -1.5865825 255
-75.347824 142.92912 -1.5699291 255
-75.19445 142.96173 -1.5631771 255
-73.076317 142.95705 -1.5727726 255
-72.963943 142.92767 -1.5747576 255
-70.880539 142.88011 -1.5749747 255
-70.783554 142.8882 -1.5591166 255
-68.615891 142.88573 -1.5806825 255
-68.521118 142.89745 -1.5734926 255
-66.314278 142.94742 -1.5733945 255
-66.186905 142.81967 -1.5680583 255
-64.025436 142.86237 -1.5747998 255
-63.883759 142.83382 -1.5696232 255
-61.661861 142.84251 -1.569742 255
-61.576473 142.89238 -1.5681437 255
-59.431877 142.88968 -1.5697649 255
-59.313606 142.89343 -1.570253 255
-57.207275 142.96323 -1.5885199 255
-57.076809 142.91312 -1.5701475 255
-56.991776 142.94133 -1.5645435 255
-54.821491 142.90535 -1.5910848 255
-54.722214 142.95795 -1.5679871 255
-52.610817 142.93077 -1.5917979 255
-52.526966 142.82315 -1.5969318 255
-50.221088 142.84181 -1.5980564 255
-50.153633 142.88937 -1.5969192 255
-48.007973 142.91148 -1.5890117 255
-47.925262 142.91455 -1.5981157 255
-47.796928 142.86108 -1.585515 255
-45.617714 142.85454 -1.5904481 255
-45.474361 142.97601 -1.5962398 255
-45.361908 142.95538 -1.5966666 255
-43.210175 142.88243 -1.5769575 255
-43.133614 142.94952 -1.5936604 255
-41.023983 142.91853 -1.5845302 255
-40.936638 142.94443 -1.5854789 255
-38.666157 142.8425 -1.5795418 255
-38.591988 142.86816 -1.5746186 255
-36.448391 142.95595 -1.583107 255
-36.37352 142.95184 -1.5822779 255
-34.076763 142.89532 -1.5786391 255
-33.97953 142.88223 -1.5786997 255
-31.80851 142.91324 -1.5725136 255
-31.711927 142.91541 -1.5792818 255
-29.439686 142.9375 -1.5815548 255
-29.368998 142.93163 -1.5794144 255
-27.227642 142.87875 -1.5764207 255
-27.134527 142.91646 -1.5787623 255
-24.883835 142.97833 -1.5758051 255
-24.771257 142.94768 -1.5592642 255
-22.635891 142.86874 -1.5646193 255
-22.542162 142.9287 -1.5625687 255
-20.414968 142.9352 -1.581728 255
-20.329205 142.96748 -1.5759543 255
-18.033098 142.82578 -1.594493 255
-17.941471 142.81711 -1.5931799 255
-15.629983 142.82449 -1.5977398 255
-15.53653 142.8558 -1.5980219 255
-13.417831 142.89296 -1.5903071 255
-13.310148 142.87039 -1.5986925 255
-11.096623 142.91888 -1.5989265 255
-10.966937 142.91281 -1.5963755 255
7.1921997 142.94202 -1.5758379 255
7.2672987 142.96071 -1.580994 255
9.5667648 142.91949 -1.570473 255
9.6278791 142.9622 -1.5736846 255
11.738713 142.94724 -1.5577414 255
11.864347 142.84196 -1.5510381 255
14.161234 142.94089 -1.5655972 255
14.215809 142.95383 -1.5588078 255
16.367046 142.93253 -1.593905 255
16.549425 142.88303 -1.5472718 255
16.608025 142.93021 -1.5375619 255
18.766121 142.94368 -1.565689 255
18.835051 142.95419 -1.5616343 255
20.977423 142.91972 -1.5649494 255
21.046053 142.95421 -1.5636549 255
23.343168 142.94165 -1.5551122 255
23.443718 142.84448 -1.5283513 255
25.548746 142.94278 -1.5421051 255
25.641829 142.93454 -1.523401 255
27.975525 142.8537 -1.5357354 255
28.027027 142.93835 -1.5379709 255
30.193867 142.90237 -1.5507265 255
30.26379 142.93369 -1.5521237 255
32.581268 142.84882 -1.5483756 255
32.654678 142.91609 -1.5542946 255
34.778912 142.84485 -1.5343961 255
34.843029 142.89902 -1.524878 255
37.119865 142.95476 -1.5481653 255
37.229088 142.90088 -1.5341474 255
39.183052 142.95381 -1.5939118 255
39.319813 142.9072 -1.5300035 255
39.432354 142.82961 -1.5505452 255
41.584431 142.88986 -1.5354538 255
41.661999 142.89383 -1.5507144 255
43.991657 142.88065 -1.5917721 255
44.156296 142.85571 -1.5496022 255
44.215324 142.82721 -1.5306808 255
46.358315 142.96611 -1.5285383 255
46.50193 142.85156 -1.5465677 255
48.753784 142.88277 -1.5410385 255
48.808945 142.91714 -1.5374713 255
50.911507 142.91042 -1.5401357 255
51.02282 142.91605 -1.5265702 255
53.327572 142.88074 -1.5500076 255
53.40757 142.83076 -1.5295689 255
55.500076 142.91808 -1.5496384 255
55.616436 142.92001 -1.5338659 255
57.776646 142.886 -1.5172945 255
57.90897 142.86552 -1.5487349 255
60.173698 142.8562 -1.5395873 255
60.235264 142.93317 -1.5405201 255
62.229259 142.97304 -1.516674 255
62.476467 142.95006 -1.5498257 255
62.601067 142.9458 -1.544457 255
64.554001 142.90088 -1.5219705 255
64.718575 142.94832 -1.5412811 255
64.824043 142.86632 -1.5466886 255
66.952667 142.85402 -1.5367837 255
67.036201 142.89992 -1.5469307 255
69.093231 142.94798 -1.5427308 255
69.239494 142.92542 -1.5587229 255
71.335327 142.97681 -1.5486423 255
71.564499 142.89258 -1.551351 255
71.617844 142.90601 -1.5595542 255
73.684792 142.94102 -1.5460523 255
73.835495 142.8512 -1.5690122 255
83.599556 142.81891 -1.5803047 255
83.674194 142.85283 -1.5771729 255
84.795341 142.80276 -1.5715258 255
84.943695 142.84006 -1.5812266 255
85.051544 142.83421 -1.5872262 255
85.365341 142.80241 -1.5774953 255
85.42099 142.82184 -1.5788298 255
-85.092331 143.1624 -1.5885842 255
-84.984039 143.12482 -1.5529735 255
-75.430626 143.12964 -1.5898187 255
-75.317551 143.03487 -1.5946956 255
-73.058311 143.04625 -1.5725768 255
-72.97699 143.08171 -1.5780995 255
-70.875153 143.02931 -1.5769156 255
-70.789612 143.0428 -1.5765696 255
-68.630997 143.0894 -1.5798796 255
-68.542397 143.11708 -1.5790772 255
-66.428932 143.17856 -1.5935298 255
-66.266449 143.05061 -1.5764242 255
-64.024185 143.08865 -1.5696194 255
-63.939754 143.05382 -1.5714589 255
-61.668743 143.08888 -1.5794334 255
-61.581657 143.08134 -1.5742335 255
-59.421658 143.12152 -1.5834184 255
-59.322887 143.13065 -1.5742186 255
-57.041378 143.12675 -1.5631109 255
-56.952946 143.15022 -1.5744648 255
-54.834068 143.12447 -1.5898387 255
-54.676601 143.05717 -1.5627967 255
-52.624676 143.1485 -1.5906495 255
-52.528683 143.15718 -1.57243 255
-50.241844 143.04977 -1.5679876 255
-50.160191 143.09903 -1.5696523 255
-48.006985 143.12779 -1.5922685 255
-47.881165 143.08839 -1.570696 255
-47.794403 143.13815 -1.5576255 255
-45.457951 143.14433 -1.5708563 255
-45.374058 143.08231 -1.5716462 255
-43.206573 143.03758 -1.5935211 255
-43.118786 143.0204 -1.597273 255
-41.024494 143.06316 -1.5958458 255
-40.968281 143.03296 -1.5983415 255
-38.701267 143.11118 -1.5980837 255
-38.579502 143.08292 -1.5942302 255
-36.450165 143.13226 -1.5965977 255
-36.371742 143.17767 -1.5946147 255
-34.062302 143.15433 -1.5935888 255
-33.99276 143.10602 -1.5879325 255
-31.813055 143.08769 -1.5798839 255
-31.723354 143.16522 -1.5863825 255
-29.462742 143.09422 -1.5823069 255
-29.369408 143.09302 -1.5831364 255
-27.240408 143.12137 -1.5794218 255
-27.137842 143.08208 -1.5795977 255
-25.013952 143.19556 -1.5905412 255
-24.855484 143.10745 -1.5813798 255
-24.774015 143.12332 -1.5822027 255
-22.636974 143.1517 -1.5810028 255
-22.56946 143.15881 -1.5825025 255
-20.417995 143.10114 -1.5869715 255
-20.277357 143.08708 -1.5783465 255
-20.181299 143.14873 -1.5853045 255
-18.029835 143.16151 -1.5783195 255
-17.962975 143.17255 -1.5779812 255
-15.621385 143.07349 -1.5758946 255
-15.504288 143.1337 -1.5766907 255
-13.427091 143.08458 -1.5764753 255
-13.336411 143.10703 -1.5775021 255
-11.037793 143.04051 -1.5604507 255
-10.962314 143.04071 -1.5696832 255
7.178884 143.14076 -1.5573754 255
7.2832804 143.14487 -1.5856131 255
9.5441961 143.11766 -1.5823956 255
9.6228828 143.13855 -1.5790923 255
11.76125 143.03346 -1.5672197 255
11.830813 143.04601 -1.5779635 255
14.160358 143.12817 -1.5736268 255
14.251525 143.1412 -1.5807009 255
16.397345 143.03139 -1.5919702 255
16.54067 143.12988 -1.5811961 255
16.612675 143.09218 -1.5686244 255
18.786184 143.05493 -1.5557528 255
18.873632 143.03764 -1.5675546 255
20.950264 143.16331 -1.5569152 255
21.110025 143.03119 -1.5582235 255
23.364059 143.11064 -1.5652126 255
23.424807 143.14658 -1.5659062 255
25.560493 143.12218 -1.556579 255
25.66234 143.14087 -1.5431744 255
27.950802 143.17303 -1.5614873 255
28.045673 143.04614 -1.5312941 255
30.165375 143.07889 -1.59056 255
30.312481 143.04738 -1.5539407 255
32.570255 143.1205 -1.5392178 255
32.698784 143.04211 -1.5513743 255
34.780212 143.1389 -1.552886 255
34.868877 143.13463 -1.5292161 255
37.157734 143.07301 -1.5540464 255
37.233013 143.10739 -1.5407145 255
39.275146 143.16019 -1.5346301 255
39.413624 143.0923 -1.5290678 255
41.58239 143.10846 -1.5392063 255
41.677597 143.06845 -1.5460265 255
43.98494 143.04465 -1.5902534 255
44.149761 143.08231 -1.5308282 255
44.207394 143.03052 -1.5473847 255
46.3759 143.09988 -1.5496652 255
46.42189 143.15955 -1.5460577 255
48.595901 143.08302 -1.5940273 255
48.704014 143.09558 -1.5507512 255
48.81461 143.12036 -1.5207338 255
50.965504 143.07158 -1.5399965 255
51.008286 143.13501 -1.5417213 255
53.193619 143.1599 -1.554873 255
53.263252 143.12811 -1.5358772 255
55.555115 143.0463 -1.5504243 255
55.61618 143.09904 -1.5436101 255
57.786297 143.15016 -1.5389873 255
57.840412 143.13779 -1.5200609 255
60.148876 143.08966 -1.5500439 255
60.234772 143.13651 -1.5468578 255
62.263336 143.10335 -1.5170728 255
62.542694 143.10628 -1.5522754 255
64.591118 143.04063 -1.5233619 255
64.701866 143.16817 -1.5433191 255
64.83963 143.13947 -1.5403273 255
66.97419 143.11192 -1.5219784 255
67.117264 143.08464 -1.5452551 255
69.146049 143.09998 -1.5443423 255
69.293953 143.08861 -1.5588367 255
71.36203 143.07368 -1.5456836 255
71.450905 143.11455 -1.5485965 255
71.630211 143.105 -1.5612276 255
73.735924 143.07036 -1.5493113 255
73.899231 143.05101 -1.5760957 255
83.747711 143.07048 -1.5908567 255
83.817886 143.04755 -1.5939792 255
85.356575 143.18294 -1.5847322 255
86.907295 143.19662 -1.5782946 255
87.311501 143.18202 -1.5893143 255
-85.050949 143.26433 -1.5879376 255
-84.983231 143.26566 -1.576592 255
-75.424927 143.23749 -1.5661294 255
-75.338364 143.27037 -1.5623128 255
-73.079506 143.24176 -1.5833451 255
-72.974136 143.24927 -1.5663981 255
-70.902306 143.36082 -1.5956625 255
-70.779068 143.35815 -1.5938807 255
-68.643288 143.32574 -1.5834728 255
-68.557907 143.33052 -1.5835172 255
-66.419632 143.276 -1.5904145 255
-66.293419 143.38701 -1.5852388 255
-64.026657 143.32239 -1.5801162 255
-63.934834 143.3504 -1.5827318 255
-61.697098 143.33057 -1.5789038 255
-61.585419 143.34679 -1.5641873 255
-59.412239 143.33911 -1.5917187 255
-59.299603 143.32341 -1.5778021 255
-59.167122 143.37981 -1.5629238 255
-57.203499 143.36288 -1.591761 255
-57.080914 143.35013 -1.5753754 255
-56.992523 143.30954 -1.5554037 255
-54.822281 143.30826 -1.5841842 255
-54.727837 143.31578 -1.575717 255
-52.61174 143.32825 -1.5879998 255
-52.52087 143.34753 -1.5754093 255
-50.250626 143.32671 -1.5807822 255
-50.16449 143.33812 -1.5791843 255
-48.009674 143.3678 -1.5917311 255
-47.906281 143.33856 -1.5778359 255
-45.42733 143.27914 -1.5817213 255
-45.368484 143.23894 -1.5732981 255
-43.215538 143.36804 -1.5745912 255
-43.106487 143.24207 -1.5706942 255
-41.020569 143.28706 -1.5641155 255
-40.932632 143.35135 -1.5722018 255
-38.668339 143.32014 -1.5678457 255
-38.582146 143.37018 -1.5645965 255
-36.43911 143.26445 -1.5643208 255
-36.346954 143.31412 -1.5628507 255
-34.201317 143.31831 -1.5906737 255
-34.103527 143.21394 -1.5976784 255
-33.990501 143.25797 -1.5900015 255
-31.813589 143.27141 -1.5938238 255
-31.72039 143.26245 -1.5968486 255
-29.444036 143.27742 -1.5980263 255
-29.372305 143.3149 -1.5970728 255
-27.234447 143.37688 -1.596912 255
-27.159994 143.37878 -1.5971187 255
-24.847858 143.36661 -1.5946572 255
-24.785141 143.32547 -1.5900611 255
-22.652121 143.31136 -1.554924 255
-22.554813 143.27832 -1.5685489 255
-20.432217 143.35754 -1.5870612 255
-20.28767 143.3658 -1.5842237 255
-18.051872 143.36716 -1.5827936 255
-17.953253 143.28502 -1.5820045 255
-15.63714 143.37184 -1.5850101 255
-15.566893 143.32861 -1.5882764 255
-13.430098 143.29089 -1.5652119 255
-13.332038 143.32664 -1.569556 255
-11.090165 143.35243 -1.5802791 255
-10.976934 143.2795 -1.576013 255
7.1864223 143.31183 -1.596905 255
7.2735324 143.30188 -1.5988363 255
9.5429182 143.36278 -1.5964152 255
9.6299286 143.35115 -1.597154 255
11.738036 143.39314 -1.597151 255
11.853127 143.35233 -1.5928479 255
14.152782 143.29491 -1.5832654 255
14.237887 143.31815 -1.5825281 255
16.38806 143.26318 -1.5906504 255
16.451357 143.35878 -1.5857931 255
16.614143 143.3833 -1.5262159 255
18.758968 143.31374 -1.5856797 255
18.843742 143.34444 -1.5865232 255
20.97813 143.29803 -1.5794904 255
21.068735 143.33276 -1.5830716 255
23.32756 143.36079 -1.5404841 255
23.455015 143.22809 -1.5631595 255
25.562073 143.31044 -1.5659406 255
25.654743 143.34647 -1.5683454 255
27.957544 143.25676 -1.5468562 255
28.013815 143.26454 -1.5599397 255
30.190033 143.28186 -1.5469904 255
30.304668 143.2742 -1.5483525 255
32.564629 143.38191 -1.5538659 255
32.685829 143.24939 -1.5458558 255
34.779419 143.28668 -1.5551581 255
34.83762 143.3578 -1.5547556 255
37.155693 143.34103 -1.5461214 255
37.221161 143.30658 -1.5164827 255
39.194656 143.35883 -1.5932558 255
39.284916 143.37146 -1.5497066 255
39.416977 143.33345 -1.5407568 255
41.582485 143.24539 -1.5511601 255
41.64431 143.33679 -1.553694 255
43.977058 143.23 -1.5917761 255
44.059795 143.32907 -1.5409861 255
46.370239 143.27605 -1.5398518 255
46.475246 143.26363 -1.5520107 255
48.751648 143.25543 -1.5420696 255
50.899963 143.33214 -1.5492464 255
51.01556 143.36211 -1.5302496 255
53.164581 143.32094 -1.5924625 255
53.274021 143.29373 -1.5408256 255
55.379513 143.34317 -1.593153 255
55.576954 143.2404 -1.5477152 255
55.616821 143.29324 -1.5505458 255
57.783215 143.25264 -1.5670353 255
57.852863 143.30374 -1.5406398 255
58.015106 143.38208 -1.5895909 255
60.168186 143.28555 -1.5401087 255
60.233063 143.27153 -1.5503035 255
62.317406 143.3082 -1.5179335 255
62.432873 143.37312 -1.5486243 255
62.609612 143.22311 -1.5402098 255
64.747681 143.30095 -1.5495896 255
64.823799 143.35713 -1.5386406 255
66.794022 143.38487 -1.536676 255
66.981834 143.26324 -1.5391064 255
67.05703 143.30075 -1.5527798 255
69.079155 143.2984 -1.5364234 255
69.222534 143.26192 -1.5525458 255
71.359901 143.27437 -1.5403529 255
71.451691 143.35654 -1.5457395 255
71.64476 143.29671 -1.5622885 255
73.728889 143.29404 -1.5416836 255
73.841789 143.24501 -1.5786295 255
83.542053 143.30225 -1.5538646 255
83.722687 143.29494 -1.5797033 255
83.886955 143.34137 -1.5961131 255
84.053108 143.27135 -1.5949703 255
84.265434 143.32233 -1.5751907 255
84.562706 143.35715 -1.583653 255
84.670074 143.3752 -1.5895491 255
84.847519 143.31674 -1.5798526 255
85.083237 143.30424 -1.5820656 255
85.262093 143.34052 -1.5899494 255
85.465584 143.26457 -1.5843229 255
85.713211 143.35127 -1.5728719 255
85.858818 143.34723 -1.5760334 255
86.137482 143.34503 -1.5843976 255
86.321922 143.3067 -1.5905827 255
86.551514 143.35251 -1.5938573 255
86.755112 143.27681 -1.5958093 255
86.930481 143.26599 -1.5937544 255
87.048798 143.3114 -1.5975071 255
87.256859 143.33768 -1.5948757 255
87.574379 143.27556 -1.5975301 255
87.690193 143.30537 -1.5920837 255
87.964134 143.28435 -1.5873867 255
88.047935 143.33542 -1.5909927 255
-85.079025 143.58426 -1.5740057 255
-84.985123 143.55356 -1.5508907 255
-75.415749 143.48268 -1.5902704 255
-75.265198 143.46292 -1.5410173 255
-73.049629 143.43895 -1.5704504 255
-72.980553 143.47876 -1.5756049 255
-71.002075 143.52139 -1.5869335 255
-70.885231 143.42038 -1.5898906 255
-70.789261 143.47186 -1.5564369 255
-68.628815 143.50175 -1.5902338 255
-68.540047 143.48338 -1.5901775 255
-66.406242 143.49042 -1.5953975 255
-66.319237 143.46388 -1.5971904 255
-64.034149 143.53757 -1.5951194 255
-63.910942 143.49814 -1.5970312 255
-61.655308 143.58794 -1.5958749 255
-61.575951 143.54245 -1.5970337 255
-59.424259 143.55537 -1.5868295 255
-59.354549 143.57635 -1.5950284 255
-57.207912 143.42358 -1.5904453 255
-57.115978 143.5753 -1.5837615 255
-56.994507 143.46335 -1.5432596 255
-54.841766 143.52164 -1.5856705 255
-54.745739 143.55711 -1.5888281 255
-52.607929 143.51628 -1.5664783 255
-52.512779 143.54617 -1.5816252 255
-50.271282 143.57397 -1.5779928 255
-50.172108 143.49623 -1.5713028 255
-48.008049 143.53595 -1.5863628 255
-47.902473 143.53444 -1.5780833 255
-45.458553 143.45464 -1.5738019 255
-45.37656 143.49704 -1.5747058 255
-43.216164 143.46213 -1.5574408 255
-43.157032 143.53632 -1.5758371 255
-41.030811 143.46387 -1.5780836 255
-40.948158 143.49132 -1.5713822 255
-38.807594 143.45885 -1.5923113 255
-38.672867 143.55038 -1.5911444 255
-38.594879 143.50073 -1.5914674 255
-36.449211 143.53629 -1.5799232 255
-36.357357 143.56413 -1.5774636 255
-34.205402 143.50911 -1.5874625 255
-34.064983 143.48816 -1.5594661 255
-31.823574 143.58148 -1.5746562 255
-31.764162 143.55707 -1.5692018 255
-29.473583 143.56421 -1.5777953 255
-29.374012 143.47514 -1.5806743 255
-27.26037 143.49541 -1.5908337 255
-27.087019 143.44098 -1.5515848 255
-24.856842 143.42683 -1.5946729 255
-24.771141 143.43138 -1.5935558 255
-22.656391 143.45482 -1.5960385 255
-22.571609 143.46043 -1.5969731 255
-20.407028 143.49754 -1.5895138 255
-20.309853 143.52327 -1.5951437 255
-18.02611 143.51263 -1.5968707 255
-17.959362 143.53719 -1.5967822 255
-15.625721 143.5619 -1.5922976 255
-15.567885 143.57549 -1.5963695 255
-13.429715 143.49345 -1.5839832 255
-13.34412 143.51541 -1.5842191 255
-11.22121 143.57043 -1.5900502 255
-11.060639 143.52254 -1.5847626 255
-10.980067 143.52406 -1.5845948 255
7.1861477 143.52686 -1.5752788 255
7.2498741 143.52875 -1.5747962 255
9.5429325 143.42384 -1.594943 255
9.6214256 143.42188 -1.594861 255
11.748505 143.43567 -1.5961841 255
11.834713 143.43912 -1.5973809 255
14.111202 143.45714 -1.5984658 255
14.232141 143.45749 -1.5970098 255
16.375912 143.45578 -1.5930681 255
16.51572 143.5062 -1.5985259 255
16.603661 143.51537 -1.5296838 255
18.763268 143.55289 -1.5986762 255
18.860746 143.55948 -1.5931998 255
20.969872 143.54608 -1.5890014 255
21.057493 143.55534 -1.587779 255
23.32972 143.54486 -1.5851462 255
23.41662 143.55009 -1.5845267 255
25.569603 143.52155 -1.5763791 255
25.659319 143.55766 -1.5800581 255
27.906855 143.49626 -1.5685958 255
28.031036 143.48581 -1.5337849 255
30.185425 143.48409 -1.560702 255
30.263092 143.54909 -1.567095 255
32.585579 143.43233 -1.5499134 255
32.651531 143.47163 -1.562497 255
34.775669 143.44148 -1.5361056 255
34.860329 143.53738 -1.5656605 255
36.99929 143.55586 -1.5939195 255
37.089607 143.5554 -1.5536394 255
37.249226 143.50488 -1.5533755 255
39.192383 143.56436 -1.597685 255
39.342724 143.47586 -1.5548209 255
39.409508 143.54262 -1.5520949 255
41.560421 143.5638 -1.5728147 255
41.711262 143.4462 -1.5532162 255
43.988659 143.5363 -1.5936477 255
44.083561 143.52554 -1.5541294 255
46.377583 143.53395 -1.5408273 255
46.435482 143.53845 -1.5353673 255
48.597145 143.46991 -1.588383 255
48.686527 143.5504 -1.5357913 255
50.782921 143.55722 -1.5928007 255
50.933544 143.464 -1.5506952 255
51.009048 143.50966 -1.550052 255
53.177246 143.53595 -1.5385284 255
53.270184 143.52066 -1.5460931 255
55.495483 143.51349 -1.5535197 255
55.620129 143.46947 -1.5404209 255
57.746902 143.57712 -1.5438117 255
57.908382 143.4334 -1.5389849 255
58.018246 143.44168 -1.5939699 255
60.110432 143.55035 -1.5500251 255
60.244755 143.43315 -1.5455385 255
62.392509 143.53409 -1.5914743 255
62.472332 143.50916 -1.5445921 255
62.62215 143.55585 -1.5901446 255
64.772118 143.4429 -1.5464129 255
64.828773 143.46782 -1.5498579 255
66.839241 143.50714 -1.5374948 255
67.049294 143.53957 -1.5517813 255
69.129219 143.44862 -1.5393505 255
69.238129 143.54033 -1.5613956 255
71.34967 143.53406 -1.5315082 255
71.465317 143.56836 -1.5394875 255
71.641602 143.44177 -1.5647558 255
73.599327 143.40181 -1.5281942 255
73.698936 143.4511 -1.5372223 255
73.852158 143.43645 -1.5763509 255
83.536522 143.49168 -1.5626299 255
83.759689 143.46426 -1.5887195 255
83.835693 143.55492 -1.5747105 255
84.091042 143.46809 -1.5728521 255
84.300972 143.52679 -1.557505 255
84.515221 143.43631 -1.5877067 255
84.662064 143.47046 -1.579952 255
84.94915 143.54185 -1.5930368 255
85.130951 143.44357 -1.591437 255
85.238113 143.52039 -1.575749 255
85.549927 143.43393 -1.571938 255
85.680351 143.43422 -1.5746913 255
85.964661 143.46887 -1.5850832 255
86.123802 143.53911 -1.5887165 255
86.255615 143.55125 -1.5915844 255
86.46804 143.44196 -1.5885692 255
86.706322 143.48279 -1.5784514 255
86.848663 143.44522 -1.5788643 255
87.19339 143.41043 -1.5848093 255
87.288445 143.44913 -1.5912637 255
87.438744 143.5838 -1.5864716 255
88.129128 143.4827 -1.584085 255
-85.078247 143.7213 -1.5615515 255
-84.973343 143.75035 -1.5880151 255
-75.422653 143.70154 -1.5696945 255
-75.338448 143.73271 -1.5545102 255
-73.065926 143.75186 -1.5486881 255
-72.954926 143.75354 -1.5584345 255
-71.002487 143.71602 -1.5888073 255
-70.86982 143.66769 -1.5701901 255
-70.79361 143.67026 -1.5826347 255
-68.632141 143.73366 -1.5896294 255
-68.525124 143.66656 -1.5599394 255
-66.418167 143.71893 -1.5886158 255
-66.34803 143.7518 -1.5718704 255
-64.045395 143.67859 -1.5859237 255
-63.934784 143.63445 -1.5613585 255
-61.667366 143.6199 -1.5910298 255
-61.577293 143.64685 -1.5775354 255
-59.412956 143.64545 -1.5921452 255
-59.324318 143.64555 -1.5976164 255
-57.207928 143.73048 -1.5898545 255
-57.123188 143.64177 -1.5979979 255
-56.984306 143.70502 -1.5971857 255
-54.82444 143.70528 -1.5958811 255
-54.760307 143.69562 -1.5984687 255
-54.584068 143.7272 -1.5886327 255
-52.617474 143.76402 -1.5887469 255
-52.513462 143.73914 -1.5974684 255
-50.226463 143.74675 -1.5906582 255
-50.164036 143.75728 -1.5925393 255
-48.019112 143.67227 -1.5843916 255
-47.958557 143.76106 -1.5830679 255
-45.46064 143.74635 -1.5821683 255
-45.371235 143.64206 -1.5733083 255
-43.220402 143.65834 -1.5713686 255
-43.11047 143.63722 -1.5775477 255
-41.040245 143.76234 -1.5792931 255
-40.969307 143.72977 -1.5804694 255
-38.670948 143.72874 -1.5780716 255
-38.587536 143.73982 -1.5770643 255
-36.462269 143.74121 -1.5742042 255
-36.357277 143.71442 -1.5701902 255
-34.207081 143.77686 -1.5896142 255
-34.072487 143.76541 -1.5750351 255
-31.820011 143.68687 -1.5838931 255
-31.71089 143.75084 -1.577065 255
-29.465942 143.75175 -1.574789 255
-29.373642 143.62383 -1.5771211 255
-27.223354 143.76054 -1.5714587 255
-27.139799 143.74062 -1.5574597 255
-24.84808 143.70961 -1.5719328 255
-24.770012 143.73643 -1.5738596 255
-22.660353 143.66788 -1.574155 255
-22.569098 143.69664 -1.5676013 255
-20.414135 143.74713 -1.5759721 255
-20.354996 143.73099 -1.5583986 255
-18.070589 143.77435 -1.5806167 255
-17.925533 143.62218 -1.5632353 255
-15.63208 143.62802 -1.5933324 255
-15.546184 143.63002 -1.5967722 255
-13.421478 143.65382 -1.5954961 255
-13.33393 143.65056 -1.5979422 255
-11.200417 143.72368 -1.5921402 255
-11.058933 143.68428 -1.598069 255
-10.984292 143.68549 -1.5831416 255
7.1889458 143.71417 -1.5700325 255
7.2569761 143.75467 -1.5813873 255
9.5368929 143.76044 -1.57888 255
9.6303291 143.73575 -1.558835 255
11.701351 143.77167 -1.57399 255
11.816833 143.75163 -1.5477846 255
14.147241 143.76213 -1.5758778 255
14.241589 143.77582 -1.5708113 255
16.482567 143.75694 -1.5731101 255
16.603592 143.72356 -1.5424056 255
18.765759 143.64403 -1.5927042 255
18.860584 143.60886 -1.5950423 255
20.959425 143.62729 -1.585903 255
21.050571 143.62602 -1.5875772 255
23.313025 143.71196 -1.5981611 255
23.432367 143.71382 -1.5968218 255
25.545732 143.77534 -1.5892953 255
25.635708 143.77455 -1.5869299 255
27.780544 143.7442 -1.5898418 255
27.927185 143.7084 -1.5795265 255
28.007771 143.74594 -1.5575491 255
30.176998 143.70181 -1.5601726 255
30.273771 143.70352 -1.5772543 255
32.537098 143.75839 -1.551065 255
32.637466 143.69066 -1.52993 255
34.788036 143.76129 -1.5599778 255
34.840908 143.77016 -1.5634452 255
37.129086 143.71722 -1.5670296 255
37.215664 143.758 -1.5535022 255
39.32156 143.68167 -1.5518253 255
41.573936 143.75568 -1.5407937 255
41.660793 143.72005 -1.5521501 255
43.980854 143.65874 -1.590997 255
44.147884 143.63475 -1.5501308 255
46.343307 143.76073 -1.5530164 255
46.460415 143.69484 -1.5374869 255
48.564983 143.67522 -1.5920897 255
48.69426 143.73485 -1.5537167 255
50.770382 143.60767 -1.5972066 255
50.861866 143.73248 -1.5398713 255
51.019951 143.67476 -1.5727406 255
53.176422 143.66742 -1.5385082 255
53.262501 143.71579 -1.5526532 255
55.390118 143.72679 -1.5886219 255
55.466702 143.77686 -1.5429285 255
55.650806 143.70822 -1.5903535 255
57.774719 143.65068 -1.5493194 255
57.825233 143.7435 -1.551703 255
58.010483 143.70779 -1.595054 255
60.095806 143.73993 -1.5513004 255
60.228191 143.7141 -1.5481558 255
62.376942 143.62183 -1.5924468 255
62.467102 143.73877 -1.5520843 255
62.628998 143.74945 -1.5939192 255
64.522644 143.68359 -1.5105292 255
64.695427 143.74289 -1.5540626 255
64.812958 143.76247 -1.5445691 255
66.91761 143.66704 -1.5356783 255
67.078102 143.68654 -1.5546582 255
67.206482 143.7225 -1.5934217 255
69.153549 143.75642 -1.5629879 255
69.262512 143.69208 -1.5632691 255
71.36631 143.73203 -1.5443546 255
71.507446 143.66338 -1.5346957 255
71.614746 143.67482 -1.5663346 255
73.723206 143.74582 -1.5516257 255
73.864304 143.66891 -1.5826164 255
83.568108 143.67773 -1.5592234 255
83.70459 143.69833 -1.591156 255
83.84623 143.69868 -1.5820138 255
84.94265 143.62646 -1.5733407 255
85.119179 143.75746 -1.5787848 255
85.236671 143.7868 -1.5782835 255
86.143188 143.70564 -1.573668 255
86.257744 143.6662 -1.5819231 255
86.44178 143.76396 -1.5897584 255
87.521156 143.71361 -1.5748199 255
87.618797 143.76732 -1.5792629 255
-85.047073 143.87277 -1.5844703 255
-84.976013 143.92474 -1.5735626 255
-75.426109 143.83846 -1.5754505 255
-75.316628 143.87877 -1.5719539 255
-73.06646 143.87386 -1.5751818 255
-72.979599 143.90742 -1.5776374 255
-70.901688 143.91919 -1.5730096 255
-68.620514 143.89415 -1.5710475 255
-68.532906 143.95601 -1.5693922 255
-66.413673 143.84833 -1.5706263 255
-66.277115 143.83897 -1.5660181 255
-64.03083 143.85948 -1.5687526 255
-63.945713 143.89539 -1.5673469 255
-61.654339 143.92551 -1.566748 255
-61.56955 143.95842 -1.5759268 255
-59.427631 143.90981 -1.5742044 255
-59.351223 143.93703 -1.5685095 255
-57.223801 143.92296 -1.5863477 255
-57.088867 143.90742 -1.5457586 255
-54.814392 143.91852 -1.5788 255
-54.738884 143.94391 -1.5615628 255
-52.610703 143.9559 -1.5769262 255
-52.507595 143.85332 -1.5830669 255
-50.258045 143.83585 -1.5931658 255
-50.172558 143.83871 -1.5937783 255
-48.006943 143.89264 -1.5905578 255
-47.93713 143.86153 -1.5972631 255
-45.464806 143.88721 -1.5979275 255
-45.384777 143.92017 -1.5946572 255
-43.214844 143.94159 -1.5957201 255
-43.142834 143.9828 -1.5967275 255
-41.03252 143.92873 -1.5797203 255
-40.92754 143.9624 -1.595577 255
-38.820911 143.84671 -1.590773 255
-38.694199 143.83832 -1.5798343 255
-38.592422 143.87325 -1.5919472 255
-36.461174 143.94786 -1.5826544 255
-36.376251 143.91953 -1.5809736 255
-34.209152 143.90028 -1.5914645 255
-34.135216 143.94185 -1.580512 255
-33.981392 143.8968 -1.5720341 255
-31.816013 143.91328 -1.5778764 255
-31.747751 143.91371 -1.5779948 255
-29.449972 143.93825 -1.578781 255
-29.365887 143.91124 -1.5744286 255
-27.242752 143.90744 -1.5725842 255
-27.1469 143.91275 -1.5767194 255
-24.911716 143.96692 -1.5648581 255
-24.778631 143.96031 -1.5455151 255
-22.815651 143.98396 -1.5878404 255
-22.631886 143.89014 -1.5456588 255
-22.578897 143.95433 -1.549045 255
-20.42469 143.94278 -1.5807106 255
-20.337086 143.95166 -1.5719634 255
-18.036409 143.85471 -1.5703821 255
-17.961527 143.87468 -1.5727555 255
-15.809809 143.88863 -1.5876405 255
-15.640874 143.95776 -1.5667832 255
-15.53589 143.84962 -1.5414537 255
-13.425766 143.92447 -1.5756238 255
-13.345467 143.94244 -1.5801131 255
-11.220484 143.90169 -1.5909622 255
-11.088715 143.94948 -1.573578 255
-10.98678 143.84995 -1.5666083 255
7.1854138 143.91447 -1.5749129 255
7.2744546 143.92918 -1.5846233 255
9.525279 143.91592 -1.5791231 255
9.631032 143.9156 -1.5755895 255
11.753598 143.81606 -1.5780048 255
11.826434 143.84351 -1.5756932 255
14.155902 143.93185 -1.5778608 255
14.247862 143.94019 -1.5794913 255
16.397888 143.91785 -1.5875417 255
16.519842 143.90123 -1.5811598 255
16.616146 143.88306 -1.564335 255
18.753744 143.86891 -1.5630006 255
18.832197 143.84799 -1.5755428 255
20.950188 143.92 -1.5638392 255
21.05887 143.92569 -1.5493288 255
23.32135 143.91988 -1.5731292 255
23.414051 143.88206 -1.5660337 255
25.54348 143.83878 -1.5980724 255
25.65233 143.82806 -1.5972176 255
27.794071 143.93799 -1.5926195 255
27.917896 143.92969 -1.5983961 255
28.005623 143.96036 -1.593749 255
30.170965 143.95084 -1.5863409 255
30.239681 143.957 -1.5858394 255
32.543739 143.9164 -1.5825115 255
32.63129 143.92381 -1.5759339 255
34.784908 143.90674 -1.5705358 255
34.882389 143.92 -1.5798447 255
36.972446 143.97411 -1.5918423 255
37.132832 143.90694 -1.5482277 255
37.207146 143.87439 -1.5419637 255
39.28661 143.93185 -1.5665889 255
41.580322 143.85193 -1.5601206 255
41.646919 143.90651 -1.5658973 255
43.983635 143.91232 -1.5751177 255
44.038334 143.94672 -1.5449808 255
46.37151 143.84319 -1.5537381 255
46.438183 143.89052 -1.5542507 255
48.580345 143.87764 -1.5912051 255
48.751305 143.86215 -1.5518477 255
48.808403 143.83434 -1.5471424 255
50.7897 143.87955 -1.5893563 255
50.887192 143.95094 -1.551466 255
51.005211 143.92142 -1.5448334 255
53.190895 143.90564 -1.5467448 255
53.308014 143.85013 -1.5453876 255
53.430084 143.94083 -1.5906233 255
55.529598 143.90323 -1.5535606 255
55.642601 143.86713 -1.5924485 255
57.772316 143.8996 -1.5444307 255
57.876404 143.83047 -1.5513613 255
58.005844 143.96808 -1.590385 255
60.12785 143.88751 -1.5537198 255
60.216511 143.96074 -1.5445734 255
62.397274 143.94489 -1.5607679 255
62.550274 143.8736 -1.5512885 255
62.632622 143.90627 -1.5613755 255
64.543266 143.90134 -1.5175195 255
64.74398 143.87413 -1.5563806 255
64.816391 143.92267 -1.5553137 255
66.964417 143.85364 -1.5459692 255
67.054588 143.93468 -1.5481625 255
67.213844 143.87196 -1.5897661 255
69.106018 143.93102 -1.5320038 255
69.254364 143.90363 -1.5634193 255
71.335449 143.95198 -1.5352559 255
71.458687 143.8846 -1.5514643 255
71.60759 143.87149 -1.5694215 255
73.578102 143.98546 -1.545679 255
73.769897 143.82948 -1.5579942 255
73.828529 143.84438 -1.557663 255
83.574013 143.84236 -1.5672816 255
83.658035 143.84714 -1.567559 255
83.982063 143.80977 -1.5688562 255
84.131966 143.92676 -1.5890354 255
84.21727 143.99625 -1.5826969 255
85.1493 143.86885 -1.580985 255
85.326988 143.9599 -1.5801777 255
85.425941 143.97784 -1.585137 255
86.345093 143.83696 -1.5939835 255
86.559067 143.89043 -1.5967555 255
86.642036 143.96281 -1.5911987 255
87.580444 143.83096 -1.5867496 255
87.669319 143.82278 -1.5911968 255
87.825851 143.98431 -1.5835091 255
-89.413284 144.19437 -1.5645834 255
-89.311455 144.1772 -1.5709492 255
-89.051285 144.18564 -1.5919743 255
-88.902954 144.17918 -1.5930257 255
-88.741158 144.18123 -1.543713 255
-88.584236 144.19337 -1.5422608 255
-88.089935 144.19838 -1.5626087 255
-87.732468 144.12128 -1.5905377 255
-85.654701 144.17026 -1.5961542 255
-85.060951 144.0907 -1.5480921 255
-84.972832 144.14259 -1.5503588 255
-75.428894 144.10362 -1.5636411 255
-75.332031 144.10789 -1.5490087 255
-75.060547 144.18222 -1.5556314 255
-74.917953 144.18956 -1.5477113 255
-74.69136 144.16405 -1.5660336 255
-74.497131 144.17668 -1.579128 255
-74.271339 144.17108 -1.553159 255
-74.124992 144.18817 -1.5904756 255
-73.915451 144.18896 -1.5893228 255
-73.636757 144.18179 -1.5644301 255
-73.477013 144.17836 -1.593524 255
-73.311035 144.18846 -1.5736462 255
-73.050903 144.07549 -1.568208 255
-72.949341 144.12111 -1.5789636 255
-72.703415 144.18918 -1.583887 255
-72.479202 144.18552 -1.5681844 255
-72.28727 144.19534 -1.5934029 255
-72.109283 144.1832 -1.5924244 255
-71.722359 144.18761 -1.5835358 255
-71.008682 144.1853 -1.5909578 255
-70.898247 144.15573 -1.5702932 255
-70.743721 144.10101 -1.5924132 255
-68.635612 144.16455 -1.5702461 255
-68.553246 144.18452 -1.565642 255
-66.409035 144.14557 -1.580018 255
-66.307121 144.07372 -1.5901004 255
-64.038338 144.07231 -1.5762521 255
-63.937054 144.12965 -1.5748178 255
-61.699207 144.13966 -1.5708224 255
-61.585548 144.02475 -1.5485815 255
-59.42281 144.14362 -1.5759302 255
-59.354141 144.12439 -1.5671185 255
-57.209885 144.03317 -1.5907867 255
-57.120483 144.14008 -1.5679345 255
-56.992718 144.12556 -1.5686437 255
-54.834404 144.08594 -1.588498 255
-54.703789 144.03731 -1.5728343 255
-52.622356 144.1411 -1.5870372 255
-52.515015 144.03546 -1.5615224 255
-50.263626 144.14384 -1.5662295 255
-50.185455 144.1763 -1.5666084 255
-48.008934 144.13095 -1.5871012 255
-47.917191 144.13167 -1.5635735 255
-45.616276 144.14032 -1.5907555 255
-45.513649 144.14355 -1.5433322 255
-45.394905 144.15686 -1.5881612 255
-43.221973 144.03709 -1.5932007 255
-43.125538 144.02104 -1.5923849 255
-41.036591 144.03711 -1.5970769 255
-40.930447 144.02643 -1.594151 255
-38.810364 144.09407 -1.5897367 255
-38.709175 144.05746 -1.5978994 255
-38.598827 144.05362 -1.5865144 255
-36.466892 144.15332 -1.5967513 255
-36.3554 144.09175 -1.5970073 255
-34.216591 144.11493 -1.594268 255
-34.123749 144.1324 -1.5983751 255
-33.999489 144.16296 -1.5890769 255
-31.826227 144.10136 -1.5838155 255
-31.726511 144.12778 -1.5846262 255
-29.617043 144.03009 -1.5872816 255
-29.476105 144.08678 -1.5800718 255
-29.377277 144.07578 -1.5712008 255
-27.253942 144.15974 -1.5853239 255
-27.165962 144.16624 -1.5839807 255
-24.867113 144.10051 -1.5815402 255
-24.781555 144.09125 -1.5754821 255
-22.665991 144.14021 -1.5804974 255
-22.57235 144.15988 -1.5798005 255
-20.412907 144.09064 -1.5913496 255
-20.304737 144.08304 -1.5774689 255
-18.039791 144.15332 -1.5712357 255
-17.952009 144.16119 -1.5723786 255
-15.627525 144.14638 -1.553838 255
-15.530061 144.13445 -1.576147 255
-13.440885 144.10318 -1.5740478 255
-13.346533 144.11652 -1.5732591 255
-11.217977 144.13258 -1.5918242 255
-11.057741 144.04146 -1.5703926 255
-10.9842 144.03612 -1.5694523 255
7.1591086 144.10306 -1.5967405 255
7.2500191 144.06984 -1.5975749 255
9.5162039 144.10297 -1.5984662 255
9.6133194 144.14793 -1.5919586 255
11.744946 144.16896 -1.5953583 255
11.812818 144.15662 -1.5937525 255
14.148901 144.16599 -1.5939792 255
14.230878 144.16833 -1.5856876 255
16.382454 144.13425 -1.5910552 255
16.470268 144.16614 -1.5857916 255
18.72924 144.15645 -1.5934149 255
18.841238 144.14801 -1.5845478 255
20.963249 144.09723 -1.5809939 255
21.048565 144.15617 -1.5906057 255
23.306374 144.12634 -1.5767003 255
23.421379 144.06482 -1.5694218 255
25.564209 144.11186 -1.5732785 255
25.650705 144.15985 -1.5756049 255
27.796818 144.13387 -1.5964788 255
27.917271 144.14238 -1.574048 255
30.184938 144.04222 -1.5979342 255
30.288164 144.04449 -1.5987756 255
32.547039 144.18135 -1.5967335 255
32.627991 144.18019 -1.5956346 255
34.765247 144.10205 -1.5780827 255
34.86631 144.11061 -1.5805331 255
36.984844 144.14511 -1.594873 255
37.140446 144.15005 -1.5837339 255
37.220619 144.15059 -1.5781393 255
39.195419 144.13159 -1.580251 255
39.319839 144.15498 -1.5799397 255
39.423218 144.09366 -1.5530587 255
41.582264 144.04877 -1.5514232 255
41.678478 144.05205 -1.5309175 255
43.970318 144.11954 -1.5790018 255
44.057041 144.13544 -1.5661794 255
46.334541 144.16617 -1.5349691 255
46.455414 144.06288 -1.5570253 255
48.56612 144.05466 -1.5931456 255
48.689201 144.10336 -1.5383391 255
50.794029 144.0997 -1.5944879 255
50.936867 144.08624 -1.5548502 255
51.004448 144.07341 -1.5200609 255
53.181736 144.14644 -1.5528647 255
53.273079 144.13284 -1.5474021 255
53.411251 144.14935 -1.5868484 255
55.379276 144.10812 -1.5939426 255
55.54108 144.06873 -1.5405391 255
55.610924 144.05716 -1.5560404 255
57.776844 144.0657 -1.5532742 255
57.866135 144.0972 -1.5417421 255
60.106304 144.12955 -1.5217705 255
60.232613 144.06351 -1.5546278 255
62.392208 144.11835 -1.5416301 255
62.446423 144.14491 -1.5308561 255
62.600723 144.01582 -1.588447 255
64.54525 144.11771 -1.5272931 255
64.730682 144.09367 -1.5632859 255
64.815651 144.16728 -1.560534 255
66.757538 144.12379 -1.539703 255
66.927399 144.05089 -1.5280886 255
67.07917 144.05887 -1.5532297 255
67.214005 144.06346 -1.5885477 255
69.142456 144.10748 -1.5254015 255
69.218994 144.16536 -1.5641056 255
71.348381 144.04221 -1.5406888 255
71.427811 144.10217 -1.5411117 255
71.603073 144.06505 -1.5794711 255
73.589256 144.02444 -1.5396307 255
73.674614 144.0676 -1.5502657 255
73.843666 144.03137 -1.5887856 255
83.581207 144.1243 -1.5642405 255
83.717232 144.09718 -1.583756 255
83.805199 144.07465 -1.5915607 255
84.137474 144.16441 -1.5652829 255
84.264107 144.15718 -1.5784441 255
84.436661 144.12393 -1.5939312 255
85.338531 144.02228 -1.5853345 255
85.495071 144.13158 -1.5837004 255
86.492859 144.09404 -1.5638672 255
86.746109 144.06444 -1.5914538 255
86.819359 144.16321 -1.5876549 255
87.912216 144.09497 -1.5902734 255
88.004929 144.19913 -1.5930896 255
-89.606956 144.39771 -1.5958409 255
-89.535927 144.31584 -1.5897684 255
-89.339569 144.27159 -1.5717542 255
-89.050369 144.27704 -1.5962888 255
-88.871529 144.27875 -1.5880394 255
-88.627335 144.32944 -1.5720736 255
-88.498711 144.29074 -1.5953807 255
-88.250244 144.34785 -1.5892361 255
-88.069977 144.36978 -1.5940423 255
-87.925835 144.30394 -1.5959806 255
-87.685806 144.32089 -1.5923517 255
-87.498802 144.30484 -1.5912149 255
-87.301132 144.31505 -1.5951685 255
-87.096764 144.32399 -1.5938786 255
-86.844849 144.3499 -1.5968947 255
-86.741394 144.32504 -1.5953557 255
-86.452248 144.3644 -1.5963583 255
-86.345436 144.31874 -1.598248 255
-86.108063 144.31737 -1.5979922 255
-85.956772 144.33701 -1.5948116 255
-85.744957 144.32143 -1.5968475 255
-85.424316 144.32214 -1.5801034 255
-85.310555 144.34857 -1.5789347 255
-85.061562 144.24055 -1.5912933 255
-84.964203 144.22632 -1.5814816 255
-75.420471 144.27457 -1.5904531 255
-75.298088 144.28329 -1.594399 255
-75.09568 144.27844 -1.5914956 255
-74.885254 144.29564 -1.5905156 255
-74.646935 144.28319 -1.5781258 255
-74.532303 144.3067 -1.5869023 255
-74.267731 144.31232 -1.5876782 255
-74.1269 144.31627 -1.5895391 255
-73.963554 144.31252 -1.5927205 255
-73.700981 144.30296 -1.5969164 255
-73.513168 144.25365 -1.555972 255
-73.245369 144.25537 -1.5827318 255
-73.106979 144.25482 -1.5741147 255
-72.904289 144.30194 -1.5759808 255
-72.71476 144.33543 -1.5795114 255
-72.48851 144.25209 -1.5741187 255
-72.300293 144.29953 -1.5773661 255
-72.098511 144.34502 -1.5791262 255
-71.897385 144.28172 -1.5752617 255
-71.674355 144.3679 -1.5663756 255
-71.463226 144.35571 -1.5688214 255
-71.298035 144.3291 -1.567536 255
-71.098488 144.30756 -1.569963 255
-70.892242 144.28249 -1.5717826 255
-70.722137 144.26271 -1.5731602 255
-70.535904 144.35019 -1.5787303 255
-70.30555 144.34395 -1.5798379 255
-70.130821 144.31494 -1.5721576 255
-69.893639 144.29732 -1.5768118 255
-69.697006 144.35081 -1.5749674 255
-69.538132 144.34474 -1.5746909 255
-69.293785 144.31146 -1.5770391 255
-69.099533 144.36362 -1.5749378 255
-68.94976 144.35292 -1.5771985 255
-68.700058 144.3237 -1.576104 255
-68.510033 144.37238 -1.5771292 255
-68.293831 144.30681 -1.5756325 255
-68.084846 144.34969 -1.5789909 255
-67.907288 144.33957 -1.5502841 255
-67.694 144.31369 -1.5791541 255
-67.494522 144.35551 -1.5772705 255
-67.302483 144.33528 -1.573694 255
-67.132233 144.37518 -1.5795531 255
-66.870407 144.33859 -1.5710676 255
-66.704643 144.36211 -1.5903813 255
-66.427368 144.26703 -1.5721946 255
-66.312164 144.30089 -1.5727338 255
-66.111244 144.37256 -1.5747733 255
-65.828873 144.37851 -1.591189 255
-65.660255 144.34041 -1.5721051 255
-65.531639 144.37111 -1.5731392 255
-65.268143 144.38797 -1.5916904 255
-65.039291 144.35332 -1.5699615 255
-64.883858 144.37383 -1.5782475 255
-64.741859 144.37872 -1.591356 255
-64.48101 144.36572 -1.5699455 255
-64.325478 144.38077 -1.5783911 255
-64.034355 144.30522 -1.5712724 255
-63.912746 144.34816 -1.5726045 255
-63.754906 144.39267 -1.5693903 255
-63.475475 144.39766 -1.5910109 255
-63.279686 144.38562 -1.5738338 255
-63.152821 144.39447 -1.5871136 255
-62.816765 144.3885 -1.550891 255
-62.693882 144.39398 -1.5761514 255
-62.226311 144.39261 -1.5510052 255
-61.808231 144.29538 -1.5890075 255
-61.679867 144.34721 -1.5737079 255
-59.415905 144.36142 -1.5816963 255
-59.310513 144.24675 -1.5682055 255
-57.218224 144.34479 -1.5912893 255
-57.100079 144.2588 -1.568984 255
-54.824432 144.27371 -1.5798315 255
-54.727596 144.31596 -1.5744191 255
-52.63121 144.26805 -1.5590205 255
-52.524944 144.28668 -1.5685925 255
-50.421432 144.29189 -1.5908767 255
-50.291416 144.34721 -1.5675876 255
-50.16444 144.27008 -1.5555279 255
-48.014038 144.35507 -1.565979 255
-47.891357 144.33253 -1.56494 255
-45.484821 144.34245 -1.5649414 255
-45.378914 144.32156 -1.551051 255
-43.226299 144.26945 -1.5649616 255
-43.144825 144.30075 -1.5671011 255
-41.025787 144.2533 -1.5753433 255
-40.932133 144.25563 -1.5723519 255
-38.804153 144.32498 -1.5906641 255
-38.638451 144.24011 -1.5647085 255
-38.591339 144.31584 -1.5445968 255
-36.465687 144.30896 -1.5636954 255
-36.379845 144.28946 -1.5562794 255
-34.215137 144.32272 -1.5919821 255
-34.078262 144.20679 -1.595289 255
-33.984753 144.32973 -1.5914977 255
-31.82906 144.23959 -1.5947862 255
-31.749254 144.23332 -1.5975357 255
-29.433523 144.23839 -1.5974183 255
-29.369034 144.24548 -1.5976192 255
-27.245722 144.32559 -1.5941346 255
-27.159643 144.32895 -1.5951711 255
-24.838501 144.31908 -1.5977956 255
-24.777889 144.35535 -1.5912511 255
-22.658564 144.35054 -1.5839212 255
-22.573162 144.36435 -1.5825429 255
-20.431059 144.35945 -1.5851631 255
-20.30085 144.36389 -1.5911462 255
-18.05113 144.35219 -1.5835009 255
-17.963243 144.34973 -1.5831176 255
-15.655602 144.35367 -1.5787179 255
-15.570042 144.36766 -1.5775084 255
-13.419022 144.2531 -1.5509535 255
-13.342649 144.30574 -1.5458339 255
-11.20961 144.26994 -1.5919441 255
-11.081151 144.3598 -1.579417 255
-10.98943 144.26427 -1.5747212 255
7.172296 144.30014 -1.5559506 255
7.2937088 144.24814 -1.5694103 255
9.5263357 144.33319 -1.5708579 255
9.6113148 144.33316 -1.5567458 255
11.745105 144.21109 -1.5956261 255
11.817083 144.21753 -1.5861008 255
14.145938 144.22208 -1.5965872 255
14.215219 144.29083 -1.5820239 255
16.380165 144.27861 -1.5806988 255
16.45047 144.24567 -1.5984101 255
18.728226 144.32529 -1.5990382 255
18.857603 144.31384 -1.5970433 255
20.93988 144.37434 -1.5906091 255
21.027319 144.37939 -1.5906982 255
23.184958 144.39172 -1.5924191 255
23.319557 144.33739 -1.5842601 255
23.419281 144.28694 -1.5725204 255
25.558361 144.32092 -1.5763104 255
25.643454 144.35477 -1.5754483 255
27.784985 144.37444 -1.5876082 255
27.908928 144.32376 -1.5777854 255
28.002872 144.31863 -1.5622386 255
30.181421 144.26015 -1.5725571 255
30.272671 144.30049 -1.5754973 255
32.538456 144.23282 -1.5939656 255
32.632725 144.23892 -1.5892202 255
34.755508 144.30756 -1.5959016 255
34.851379 144.31311 -1.5975103 255
36.996998 144.30116 -1.5971645 255
37.113605 144.37888 -1.5885396 255
37.216293 144.23532 -1.5453563 255
39.191055 144.31595 -1.5880871 255
39.280556 144.33011 -1.5838864 255
39.411884 144.26134 -1.5281609 255
41.54818 144.32716 -1.5810959 255
41.637714 144.36235 -1.5809089 255
43.974045 144.28719 -1.5919409 255
44.064133 144.34604 -1.5683943 255
46.315659 144.34395 -1.5495692 255
46.439407 144.32477 -1.55452 255
48.594097 144.25188 -1.5679375 255
48.699722 144.31374 -1.5669115 255
50.794502 144.27498 -1.5970067 255
50.948547 144.30446 -1.5526339 255
53.16996 144.26074 -1.5536658 255
53.264614 144.33504 -1.5551208 255
53.422359 144.32562 -1.5904897 255
55.377106 144.35388 -1.5592781 255
55.457138 144.36223 -1.547246 255
55.633095 144.311 -1.5557802 255
57.763992 144.29565 -1.5534835 255
57.902615 144.26559 -1.5462508 255
60.091442 144.35829 -1.5325581 255
60.22123 144.34131 -1.5508637 255
62.334488 144.35403 -1.5499101 255
62.450554 144.35162 -1.547421 255
62.617626 144.3033 -1.5913321 255
64.573051 144.24367 -1.5517215 255
64.654411 144.33493 -1.5314878 255
64.83976 144.26059 -1.5701721 255
66.939827 144.31079 -1.5468855 255
67.046425 144.32768 -1.5621643 255
68.973068 144.31158 -1.5381098 255
69.055908 144.33817 -1.5426697 255
69.224953 144.30737 -1.543741 255
71.306747 144.37915 -1.555789 255
71.445557 144.34636 -1.5728375 255
71.608315 144.342 -1.5661572 255
73.755806 144.26819 -1.5933027 255
73.838066 144.25433 -1.5907372 255
83.499413 144.30069 -1.5644853 255
83.669029 144.31233 -1.5780333 255
84.358841 144.22585 -1.5777391 255
84.524612 144.29623 -1.5804342 255
84.638306 144.3522 -1.5809997 255
85.561043 144.29948 -1.5866373 255
85.6605 144.278 -1.5892543 255
85.851273 144.38313 -1.5922949 255
86.776283 144.23979 -1.5812087 255
86.867531 144.22647 -1.5846479 255
87.032883 144.36252 -1.5903928 255
87.885719 144.23102 -1.5960387 255
88.072166 144.2773 -1.5985327 255
-89.622513 144.43658 -1.595086 255
-89.374481 144.41209 -1.5597378 255
-89.042892 144.41806 -1.5745085 255
-88.632721 144.42969 -1.5672626 255
-88.597733 144.41072 -1.5845585 255
-88.268219 144.44446 -1.5888911 255
-88.085945 144.43303 -1.5782385 255
-87.970467 144.42532 -1.5851272 255
-87.713226 144.42958 -1.5887552 255
-87.43512 144.42026 -1.5537055 255
-87.260414 144.43631 -1.586591 255
-87.116455 144.41739 -1.5892699 255
-86.865631 144.44147 -1.595948 255
-86.762856 144.46794 -1.598143 255
-86.475357 144.44559 -1.5954279 255
-86.322449 144.42792 -1.59161 255
-86.069397 144.42529 -1.5951457 255
