# .PCD v0.7 - Point Cloud Data file format
VERSION 0.7
FIELDS x y z intensity
SIZE 4 4 4 4
TYPE F F F F
COUNT 1 1 1 1
WIDTH 1242
HEIGHT 1
VIEWPOINT 0 0 0 1 0 0 0
POINTS 1242
DATA ascii
41.998554 138.806 -1.7193822 127
42.797207 138.81165 -1.7208492 127
43.569019 138.80414 -1.7199528 127
44.393047 138.80617 -1.7215258 127
45.197723 138.8038 -1.7221861 127
45.984436 138.80893 -1.7192378 127
46.817032 138.80511 -1.7238624 127
47.609707 138.80423 -1.7215154 127
48.400784 138.8109 -1.7198762 127
49.194221 138.80612 -1.7231205 127
50.008549 138.80876 -1.7215031 127
50.790241 138.80742 -1.7182422 127
51.596397 138.80978 -1.7210573 127
52.389553 138.81345 -1.7190682 127
53.208542 138.81691 -1.7190806 127
53.983128 138.81218 -1.7195542 127
54.778439 138.80913 -1.7197233 127
55.572487 138.81558 -1.7183986 127
56.405056 138.81747 -1.7212834 127
57.172413 138.81085 -1.7202574 127
57.963234 138.8187 -1.7190878 127
58.798523 138.81461 -1.7217987 127
59.626225 138.81479 -1.7169797 127
60.388374 138.81343 -1.7159529 127
61.194191 138.81841 -1.7191589 127
61.977859 138.81168 -1.7168559 127
62.807922 138.81413 -1.7163131 127
63.61692 138.81357 -1.7182742 127
64.431145 138.81538 -1.7205118 127
65.218781 138.81073 -1.7183621 127
66.016777 138.81587 -1.7215004 127
66.816422 138.80571 -1.7198468 127
67.617958 138.80545 -1.7211241 127
68.410378 138.80632 -1.7230289 127
69.209053 138.79639 -1.7215639 127
69.978622 138.7973 -1.7231147 127
70.811752 138.80238 -1.7256311 127
71.595215 138.78667 -1.7253435 127
72.38752 138.79012 -1.726074 127
73.178947 138.80626 -1.7287811 127
73.997841 138.79526 -1.7275405 127
74.800522 138.80362 -1.7286047 127
75.605995 138.80391 -1.7306347 127
76.414024 138.80045 -1.7288498 127
77.200516 138.81479 -1.7275418 127
78.011238 138.81633 -1.7282329 127
78.810188 138.80022 -1.7309555 127
79.59169 138.82101 -1.7328076 127
80.422485 138.79843 -1.7331779 127
81.234467 138.77304 -1.7353634 127
82.011963 138.81511 -1.735978 127
82.784943 138.79814 -1.7338212 127.02465
83.56102 138.80956 -1.73121 142.04692
84.348328 138.77966 -1.7286062 157.30928
85.166534 138.81752 -1.730285 164.44652
85.989212 138.7202 -1.7293901 161.66371
86.817291 138.78191 -1.7333678 130.42152
87.580559 138.86464 -1.7355748 127
88.506142 138.78026 -1.7023371 127.91013
88.954796 138.81886 -1.6541331 129
-89.924004 139.58955 -1.6665782 128.11458
-89.270988 139.53462 -1.6948642 153.13641
-88.380646 139.5462 -1.6952126 152.88235
-87.577148 139.58032 -1.6985533 153.82986
-86.750771 139.56248 -1.699833 149.45534
-85.992599 139.59712 -1.6996281 153.43988
-85.18692 139.599 -1.7061585 166.12279
-84.411316 139.59595 -1.7124468 129.10304
-83.621819 139.60446 -1.7030827 129
-82.785439 139.58846 -1.7019655 129
-82.01413 139.60657 -1.7054286 129
-81.192451 139.57683 -1.7070031 129
-80.396202 139.58669 -1.7077588 129
-79.593742 139.591 -1.7123411 129
-78.782578 139.58134 -1.71543 129
-77.998146 139.58601 -1.7162271 129
-77.17318 139.60049 -1.7217318 129
-76.390465 139.59862 -1.7340631 129
-75.591209 139.59288 -1.730492 146.29385
-74.778206 139.6218 -1.731196 138.1521
-73.990601 139.62823 -1.7300718 134.8147
-73.194786 139.62349 -1.727309 160.49512
-72.375244 139.61635 -1.729897 140.99179
-71.577415 139.62921 -1.7289349 144.7316
-70.846924 139.62404 -1.7253402 170.20815
-70.005989 139.65944 -1.7294545 142.22859
-69.196526 139.66498 -1.7269443 142.94955
-68.455788 139.65642 -1.7267752 164.49364
-67.593765 139.67107 -1.7256871 141.46184
-66.768059 139.68286 -1.7258319 154.51988
-66.009354 139.66908 -1.7295698 152.68401
-65.198433 139.69496 -1.7248021 143.80336
-64.370621 139.71227 -1.7236099 159.26147
-63.577 139.67908 -1.7238228 149.2411
-62.805519 139.70825 -1.7246141 143.89436
-61.976059 139.72722 -1.722639 160.36369
-61.177418 139.70789 -1.7231909 147.41446
-60.401844 139.72658 -1.7237576 144.85594
-59.590515 139.75443 -1.7220043 161.67879
-58.783588 139.71136 -1.7224585 146.94807
-58.006516 139.71358 -1.7225095 146.49515
-57.226852 139.72012 -1.7202753 164.72717
-56.39706 139.68468 -1.7213522 148.20975
-55.599766 139.68896 -1.7206497 150.43124
-54.836712 139.67867 -1.7197983 162.43912
-53.998974 139.67979 -1.7205648 149.65878
-53.202576 139.67264 -1.7200774 152.77809
-52.425201 139.65968 -1.7195698 159.53793
-51.600597 139.66422 -1.720349 149.7603
-50.799961 139.67313 -1.7201216 151.90909
-50.008148 139.64029 -1.7194815 159.62047
-49.204941 139.64767 -1.7199889 150.70111
-48.38443 139.64986 -1.7195842 156.03249
-47.587856 139.6244 -1.7196963 156.24731
-46.793072 139.63123 -1.7200963 152.72356
-45.989677 139.63972 -1.7199183 155.41479
-45.19297 139.62685 -1.7196453 157.30154
-44.408993 139.64438 -1.7201142 152.86305
-43.609909 139.6451 -1.7199169 156.22417
-42.795723 139.62579 -1.7201719 155.55467
-42.005924 139.6281 -1.7202075 157.56647
-41.216747 139.6194 -1.7200812 156.23393
-40.399956 139.6308 -1.7203648 154.50732
-39.587154 139.64009 -1.72041 155.88637
-38.769897 139.63504 -1.7205117 153.7616
-37.997356 139.6432 -1.7208962 150.6122
-37.21048 139.62444 -1.7213405 146.75095
-36.396904 139.61588 -1.7208865 146.31754
-35.579929 139.61601 -1.7215133 144.37401
-34.791065 139.61909 -1.7217741 140.85506
-33.990261 139.60266 -1.7222188 138.19646
-33.197235 139.6039 -1.722199 134.6998
-32.404308 139.60065 -1.7224578 133.62634
-31.591024 139.60153 -1.7229799 131.12589
-30.795689 139.58054 -1.7228702 129.18208
-30.017881 139.59529 -1.7233037 129
-29.207161 139.58627 -1.7231426 129
-28.426863 139.58096 -1.7229989 129
-27.604616 139.59023 -1.7228774 129
-26.80801 139.59032 -1.723279 129
-25.995619 139.59639 -1.7225924 129
-25.17922 139.58247 -1.7224079 129
-24.382929 139.58371 -1.7228684 129
-23.595861 139.59479 -1.7234457 129
-22.783936 139.59227 -1.7233782 129
-22.009689 139.58704 -1.7227318 129
-21.208437 139.5838 -1.723237 129
-20.400164 139.59274 -1.72228 129
-19.594128 139.58989 -1.7090816 129
-18.829103 139.60268 -1.7139971 129
-18.007715 139.58694 -1.7189494 129
-17.166086 139.59132 -1.7070116 129
-16.422781 139.59958 -1.7041523 129
-15.580558 139.59187 -1.7044399 129.31421
-14.811558 139.59016 -1.7034248 129
-13.988494 139.59688 -1.7005643 129
-13.177624 139.59192 -1.7025023 129.14047
-12.376288 139.59909 -1.7038062 129
-11.577597 139.60185 -1.7030309 129.02393
-10.791084 139.59383 -1.7068859 129
-9.9830055 139.59572 -1.7088758 129
-9.1838665 139.59607 -1.7130498 129
-8.4369173 139.61224 -1.707078 127.91232
-7.6017971 139.60501 -1.709295 127
-6.7926631 139.59541 -1.7110295 127
-6.0066071 139.60249 -1.7143155 127
-5.223886 139.5965 -1.7138885 127
-4.3958583 139.59479 -1.7132448 127
-3.6011736 139.59732 -1.7144994 127
-2.8051565 139.5948 -1.7149384 127
-1.9873174 139.58876 -1.7168642 127
-1.1560764 139.59692 -1.7255535 127
-0.42003441 139.61328 -1.7309958 127
0.39640409 139.59479 -1.7312214 127
1.183713 139.59888 -1.7297348 127
1.995008 139.59792 -1.7369885 127
2.7682478 139.60298 -1.7421463 127
3.5745642 139.58702 -1.7424026 127
4.3946314 139.58617 -1.7402767 127
5.1777868 139.58459 -1.7370667 127
5.9690328 139.60085 -1.733788 127
6.7893267 139.58636 -1.730985 127
7.5777912 139.60127 -1.7322187 127
8.3854198 139.60085 -1.729437 127
9.1976871 139.5972 -1.7303463 127
9.9932394 139.59865 -1.7310951 127
10.827646 139.59752 -1.7249898 127
11.634179 139.59854 -1.7265772 127
12.412571 139.59071 -1.7296605 127
13.219609 139.59944 -1.7276951 127
14.028438 139.60442 -1.725374 127
14.824447 139.58846 -1.7264653 127
15.609283 139.59334 -1.7291061 127
16.397999 139.61203 -1.7287374 127
17.1754 139.59355 -1.7318112 127
17.993429 139.59273 -1.7328144 127
18.792297 139.59448 -1.729578 127
19.608297 139.60417 -1.7284265 127
20.402182 139.59581 -1.7275459 127
21.2288 139.59415 -1.7254031 127
22.00316 139.59912 -1.7237226 127
22.811043 139.59335 -1.7219414 127
23.595131 139.5999 -1.7216303 127
24.400476 139.5956 -1.7171148 127
25.205713 139.59811 -1.719681 127.26197
26.009312 139.59409 -1.7176608 143.15829
26.799051 139.5912 -1.7162946 175.769
27.572573 139.59709 -1.7081132 210.46872
28.395361 139.60246 -1.7105505 174.21982
29.206547 139.59712 -1.7126753 165.86684
30.007936 139.60295 -1.7087168 165.39999
30.805841 139.58571 -1.7076907 143.47992
31.608406 139.61143 -1.7113392 127.05605
32.405708 139.6048 -1.71 127
33.199402 139.60272 -1.7117236 127
34.006207 139.60141 -1.7091355 127
34.797607 139.59192 -1.7117735 127
35.609901 139.59427 -1.7120593 127
36.407345 139.60202 -1.712389 127
37.236961 139.59352 -1.7147312 127
38.027794 139.60124 -1.7162502 127
38.808453 139.60031 -1.7176845 127
39.587257 139.60014 -1.7190006 127
40.40543 139.60605 -1.7189968 127
41.215881 139.59148 -1.7213562 127
42.005745 139.60484 -1.7184824 127
42.792095 139.60399 -1.7207842 127
43.59034 139.60582 -1.7201023 127
44.420391 139.59332 -1.7217454 127
45.208836 139.60747 -1.7215706 127
45.995888 139.59534 -1.7199639 127
46.806194 139.60188 -1.7237792 127
47.586891 139.60168 -1.7217766 127
48.401051 139.60555 -1.7207638 127
49.211426 139.60542 -1.7232932 127
50.019272 139.59518 -1.7223504 127
50.788376 139.60263 -1.7186272 127
51.588867 139.60333 -1.7203515 127
52.394558 139.59988 -1.718667 127
53.207535 139.59917 -1.7214928 127
53.981823 139.59976 -1.721027 127
54.785885 139.60597 -1.719615 127
55.590893 139.60426 -1.7193578 127
56.40744 139.59935 -1.7231654 127
57.18811 139.60497 -1.7198555 127
57.984077 139.59454 -1.720668 127
58.787487 139.60304 -1.7225739 127
59.610001 139.60388 -1.7189221 127
60.406303 139.59879 -1.7166307 127
61.200283 139.5959 -1.720282 127
61.974125 139.60938 -1.7187779 127
62.809364 139.59612 -1.720093 127
63.603592 139.60616 -1.7196503 127
64.40892 139.60075 -1.7221084 127
65.198639 139.60455 -1.7202859 127
66.012329 139.59747 -1.7225976 127
66.81411 139.60907 -1.7222605 127
67.626221 139.60329 -1.7221129 127
68.393204 139.59067 -1.7226247 127
69.206764 139.60712 -1.7208598 127
69.96109 139.60429 -1.7224874 127
70.791534 139.59534 -1.726078 127
71.61216 139.60007 -1.7246139 127
72.382553 139.59631 -1.7252553 127
73.187531 139.59053 -1.7261873 127
73.989044 139.60423 -1.7277809 127
74.806046 139.61279 -1.7263787 127
75.597054 139.60437 -1.7279705 127
76.396927 139.60609 -1.7265446 127
77.19416 139.59854 -1.7299289 127
78.015762 139.60478 -1.7316175 127
78.816917 139.60846 -1.7284523 127
79.595818 139.60043 -1.7307036 127
80.408585 139.58005 -1.728981 127
81.260796 139.6308 -1.7307206 127
82.011452 139.58546 -1.7341727 127
82.774872 139.59552 -1.7336143 127.02509
83.546211 139.60843 -1.7294973 147.77521
84.368965 139.59465 -1.7293963 152.6389
85.187675 139.62929 -1.7310359 159.20915
85.984589 139.61877 -1.7306446 151.586
86.737381 139.60345 -1.7300596 144.71172
87.586784 139.59015 -1.7289689 146.59973
88.53936 139.60413 -1.7022322 130.2912
88.905624 139.60847 -1.6714799 128.92392
90.790489 139.55891 -1.6039146 129
-89.952171 140.41234 -1.6697065 128.21095
-89.273994 140.40074 -1.6995881 128.6992
-88.383675 140.42598 -1.6991239 129.7039
-87.578751 140.42871 -1.6976221 129.27917
-86.767258 140.45529 -1.7017121 129
-85.9785 140.44984 -1.7041128 129.60001
-85.158615 140.43996 -1.7064564 156.73813
-84.421547 140.39424 -1.7134686 129.09361
-83.613785 140.38988 -1.7002796 129
-82.805992 140.40646 -1.700372 129
-81.984619 140.38396 -1.7062846 129
-81.197792 140.39879 -1.7078599 129
-80.388382 140.39034 -1.7089033 129
-79.594131 140.39801 -1.7134125 129
-78.801125 140.38066 -1.7157469 129
-77.992889 140.39124 -1.7163246 129
-77.174759 140.3868 -1.7224104 129
-76.385391 140.39272 -1.7346804 129.2592
-75.586624 140.39436 -1.7309282 149.52765
-74.778954 140.40041 -1.7330339 131.46817
-73.997742 140.38699 -1.7305793 129.06757
-73.218376 140.39864 -1.7276216 149.78946
-72.381401 140.37746 -1.7315696 129.62222
-71.585442 140.37978 -1.7303966 130.00369
-70.850403 140.36877 -1.7259455 154.42529
-70.004082 140.37904 -1.7307308 129
-69.187225 140.37813 -1.7270617 132.60139
-68.456055 140.37871 -1.7278706 152.84174
-67.605453 140.37666 -1.7261038 129
-66.757477 140.37762 -1.7262579 145.24429
-65.995743 140.37534 -1.7312744 138.5359
-65.20137 140.38161 -1.7255292 129
-64.350998 140.37535 -1.7237072 151.01564
-63.572449 140.36296 -1.7260456 130.22911
-62.802837 140.37135 -1.7258914 129
-61.966827 140.37515 -1.7238498 150.1571
-61.143475 140.37823 -1.7260336 129.21315
-60.40295 140.38071 -1.7260107 129
-59.587196 140.37952 -1.723839 151.66084
-58.731159 140.37384 -1.7259848 129
-57.995853 140.36444 -1.7263343 129
-57.253071 140.36166 -1.7241083 153.12158
-56.368885 140.36581 -1.7265555 129
-55.59845 140.37599 -1.7266325 129.23831
-54.88332 140.38618 -1.7240638 155.96323
-53.998047 140.40419 -1.72654 129
-53.19157 140.40439 -1.7260772 131.8606
-52.480934 140.41452 -1.7239076 155.69205
-51.601994 140.41904 -1.726091 129
-50.768311 140.42546 -1.7250017 139.0033
-50.045612 140.43185 -1.7244586 146.49922
-49.201244 140.44478 -1.7257489 129
-48.35947 140.45616 -1.7238319 149.17793
-47.603466 140.45972 -1.7251297 134.86487
-46.801285 140.45866 -1.7254634 129
-45.977165 140.47002 -1.7238948 141.28235
-45.245445 140.47047 -1.7236639 146.045
-44.41098 140.48361 -1.7249242 129
-43.551624 140.47932 -1.7226479 150.87692
-42.77066 140.48338 -1.7245017 131.32298
-41.997993 140.47891 -1.7242875 129
-41.214752 140.47217 -1.7215459 153.8576
-40.357903 140.4281 -1.7230363 129
-39.604691 140.43764 -1.7228968 129.27855
-38.858112 140.42819 -1.7199978 157.54688
-37.983643 140.41455 -1.7218882 133.00352
-37.188053 140.4072 -1.7214799 137.369
-36.465759 140.39648 -1.7186601 162.96866
-35.609013 140.38908 -1.7209085 143.19948
-34.796707 140.39775 -1.720189 146.67259
-34.055061 140.39867 -1.718436 164.87125
-33.203453 140.39265 -1.7201774 145.5246
-32.378216 140.38374 -1.7191544 156.38162
-31.653324 140.38568 -1.718214 168.82162
-30.788387 140.37259 -1.7192534 155.36943
-29.984371 140.38007 -1.7184417 165.10268
-29.224457 140.37355 -1.718042 168.29099
-28.390131 140.38469 -1.7191603 158.03999
-27.572348 140.4001 -1.7178086 170.61177
-26.774147 140.37158 -1.7186565 162.80138
-26.002192 140.39345 -1.718945 157.45747
-25.174873 140.4166 -1.7177745 171.54616
-24.375566 140.38274 -1.7184637 164.95271
-23.618608 140.40523 -1.7189249 161.9574
-22.826977 140.42033 -1.7179426 174.39467
-21.982038 140.40057 -1.7177579 168.19203
-21.195827 140.41707 -1.7180327 169.43425
-20.432917 140.41031 -1.7168928 178.69435
-19.569527 140.41989 -1.7097021 160.69014
-18.791515 140.42854 -1.7125493 163.10487
-18.035948 140.41875 -1.714556 173.38704
-17.164085 140.41507 -1.7080963 156.51942
-16.399113 140.42899 -1.7056533 157.82901
-15.59778 140.40181 -1.7062061 163.09886
-14.79923 140.42851 -1.707322 158.89752
-13.984167 140.40024 -1.7018088 150.5334
-13.186749 140.39941 -1.702837 156.47311
-12.392884 140.40358 -1.7041919 147.05327
-11.580065 140.39801 -1.7047082 147.93967
-10.779638 140.38206 -1.7054889 146.58195
-10.0067 140.39737 -1.7089504 143.27313
-9.1953564 140.37904 -1.7105752 140.23897
-8.4358082 140.41005 -1.7075106 128.89902
-7.5886841 140.40265 -1.7077805 127
-6.7843847 140.39868 -1.7106923 127
-6.002851 140.40544 -1.7133814 127
-5.2225533 140.39355 -1.7121756 127
-4.3909111 140.39198 -1.7101209 127
-3.598841 140.40115 -1.7125416 127
-2.8030329 140.39915 -1.7141588 127
-1.9951159 140.39664 -1.7152094 127
-1.1581947 140.39514 -1.7229555 127
-0.41446206 140.39857 -1.7284791 127
0.37065306 140.40729 -1.7277993 127
1.1683118 140.42073 -1.7293992 127
2.012558 140.43178 -1.7275919 127.31413
2.7553697 140.38403 -1.7207813 127.60605
3.588851 140.36993 -1.7207276 127.63055
4.3817749 140.38431 -1.7148983 127.65133
5.1789808 140.38663 -1.7290806 134.56694
5.9918551 140.37512 -1.7238716 145.92174
6.7922564 140.40498 -1.7233818 148.02313
7.587759 140.39159 -1.7253804 145.55571
8.3862572 140.39536 -1.7231578 144.23691
9.198061 140.3999 -1.7233815 142.20746
9.994113 140.39532 -1.7249666 138.34355
10.79729 140.41672 -1.7217849 138.47145
11.593483 140.41373 -1.7228768 135.32385
12.397319 140.41689 -1.7256116 132.59647
13.188605 140.41486 -1.7265762 130.79446
13.981599 140.4221 -1.7240255 127.32905
14.797083 140.42645 -1.7232943 127.05151
15.593031 140.44292 -1.7274517 127
16.394688 140.41606 -1.7273889 127
17.209513 140.43158 -1.7294004 127
18.004004 140.42297 -1.7296206 127
18.800127 140.43297 -1.7301749 127
19.619047 140.42152 -1.7283459 127
20.426445 140.42755 -1.7249407 127
21.243776 140.42822 -1.7255667 127
22.017433 140.42435 -1.7233905 127
22.819813 140.42975 -1.7215527 127
23.605173 140.42674 -1.720907 127
24.414341 140.42722 -1.7177423 127
25.197783 140.41469 -1.7182965 127
25.996553 140.42609 -1.7168127 127
26.796116 140.42662 -1.7194703 127
27.616451 140.40765 -1.7174033 127.67776
28.40011 140.41728 -1.7160406 128.12505
29.184738 140.40988 -1.714898 127
29.998079 140.41817 -1.7151694 127
30.808529 140.40591 -1.7115079 127
31.604166 140.41776 -1.7135885 127
32.400795 140.40521 -1.711127 127
33.206646 140.42007 -1.7122217 127
34.020741 140.41118 -1.7102734 127
34.802803 140.4124 -1.7108537 127
35.596348 140.41785 -1.7123047 127
36.3974 140.4118 -1.7130128 127
37.20956 140.4256 -1.7146045 127
38.006241 140.41217 -1.7165298 127
38.801273 140.41953 -1.716336 127
39.598911 140.41658 -1.7174965 127
40.408329 140.4167 -1.7182344 127
41.196461 140.41699 -1.7181515 127
41.983429 140.42314 -1.7179395 127
42.804893 140.411 -1.7192287 127
43.615116 140.41457 -1.7196724 127
44.415844 140.41087 -1.7191161 127
45.201691 140.41273 -1.7201477 127
45.996838 140.42085 -1.7202783 127
46.807507 140.39818 -1.7205321 127
47.604836 140.41261 -1.7217083 127
48.410522 140.40778 -1.7203149 127
49.198936 140.40892 -1.7215308 127
50.004486 140.40063 -1.7209523 127
50.808155 140.40703 -1.7186708 127
51.60627 140.4026 -1.7191113 127
52.402752 140.39919 -1.719416 127
53.205387 140.40276 -1.7190832 127
54.001526 140.40921 -1.7202337 127
54.818348 140.40018 -1.7194625 127
55.6092 140.39622 -1.720189 127
56.412155 140.40005 -1.7209394 127
57.204735 140.40898 -1.7208389 127
58.004948 140.41528 -1.7193127 127
58.796688 140.39973 -1.7235165 127
59.604008 140.40099 -1.7199043 127
60.394283 140.40462 -1.7181406 127
61.203079 140.40332 -1.7190458 127
61.984577 140.4055 -1.7195143 127
62.800697 140.40134 -1.7211394 127
63.597927 140.41104 -1.7200888 127
64.395386 140.40831 -1.7215387 127
65.192558 140.4118 -1.7188398 127
66.002838 140.40936 -1.7212559 127
66.806351 140.4007 -1.7215855 127
67.601486 140.39471 -1.7218792 127
68.380241 140.42145 -1.7212713 127
69.192474 140.40572 -1.7221187 127
69.991425 140.41991 -1.719866 127
70.817314 140.40889 -1.72377 127
71.599663 140.4153 -1.7238667 127
72.39296 140.42116 -1.722162 127
73.180069 140.4008 -1.7272096 127
74.006615 140.41508 -1.7234225 127
74.808182 140.39272 -1.7264041 127
75.599319 140.40051 -1.7231472 127
76.374527 140.38985 -1.7280566 127
77.197861 140.4023 -1.7288092 127
78.019394 140.38002 -1.7285206 127
78.811172 140.41788 -1.7236896 127
79.601227 140.38933 -1.7258565 127
80.430687 140.42569 -1.7291378 127
81.192604 140.40248 -1.7290546 127
82.01767 140.37894 -1.7292445 127
82.797302 140.38863 -1.7338554 127
83.557465 140.41098 -1.7298323 152.67033
84.374443 140.4162 -1.7315775 159.09175
85.158607 140.43054 -1.7303721 154.57701
85.96769 140.43747 -1.7315147 147.8952
86.83403 140.42459 -1.7289236 153.66315
87.581276 140.39027 -1.7310939 154.86395
88.507195 140.4057 -1.7035489 132.10484
88.865669 140.3382 -1.6866201 128.70129
90.223351 140.63142 -1.6014656 129
91.448158 140.49039 -1.6058136 129
-90.401619 140.9751 -1.6354474 129
-89.948174 141.19518 -1.6693875 128.11316
-89.303032 141.18941 -1.6999674 128.70995
-88.380096 141.19652 -1.6972096 129
-87.586555 141.19446 -1.6964498 129
-86.762764 141.19751 -1.7018547 129
-85.985573 141.20012 -1.7031752 129
-85.178207 141.19527 -1.7055354 154.11418
-84.430222 141.20082 -1.7124529 129.29417
-83.618057 141.20615 -1.7021409 129
-82.784126 141.1925 -1.6998023 129
-82.008484 141.19759 -1.7045938 129
-81.197014 141.18279 -1.7070549 129
-80.397041 141.19736 -1.707188 129
-79.598076 141.18469 -1.7122782 129
-78.782097 141.1813 -1.7147846 129
-77.997353 141.20792 -1.7163684 129
-77.170441 141.19438 -1.7220809 129
-76.3899 141.20128 -1.7349187 129
-75.606689 141.19432 -1.7313845 150.44862
-74.777992 141.19084 -1.7330868 130.46512
-74.005569 141.18808 -1.7313715 129.25044
-73.219887 141.18529 -1.7293472 150.44276
-72.392021 141.19374 -1.7325195 129.59448
-71.578003 141.18234 -1.7324299 129.20045
-70.85376 141.1886 -1.7248302 155.24115
-70.020187 141.20085 -1.7300599 129
-69.189186 141.18048 -1.7269336 132.0786
-68.469879 141.19124 -1.7277277 155.15929
-67.581642 141.17291 -1.7244123 129
-66.75518 141.15959 -1.7245271 147.52095
-65.985275 141.17203 -1.7314658 138.15245
-65.201164 141.16801 -1.7237236 129
-64.357391 141.16156 -1.7214093 150.3045
-63.559441 141.17387 -1.7234857 129.64709
-62.785942 141.17751 -1.7233729 129
-61.970398 141.18379 -1.7210488 151.4679
-61.145042 141.18694 -1.7236789 129.13481
-60.39698 141.19907 -1.7234699 129
-59.585701 141.17917 -1.7215408 151.43535
-58.722729 141.16814 -1.7238888 129
-58.001022 141.16362 -1.7240366 129.03212
-57.258762 141.16309 -1.722016 154.60196
-56.376858 141.17073 -1.7243146 129
-55.606911 141.17101 -1.7247366 129.22072
-54.876274 141.17418 -1.7219987 155.9037
-53.989498 141.18393 -1.7247556 129
-53.199192 141.1748 -1.7248204 130.54857
-52.480389 141.18193 -1.7226527 153.3604
-51.597874 141.18111 -1.7252508 129
-50.77668 141.18307 -1.7241467 139.8503
-50.051723 141.17444 -1.7234977 146.53429
-49.192638 141.16969 -1.7253504 129
-48.352463 141.17868 -1.7234229 149.12654
-47.591022 141.18324 -1.7250105 133.68903
-46.794785 141.16576 -1.7259158 129
-45.971554 141.17303 -1.7247107 141.44087
-45.233753 141.17497 -1.7247509 142.99684
-44.396637 141.17886 -1.7262908 129
-43.553619 141.18744 -1.7241582 150.14012
-42.77861 141.17754 -1.7263198 130.40326
-42.004311 141.17404 -1.7263381 129
-41.194626 141.16887 -1.7243772 151.14771
-40.332375 141.16827 -1.7266107 129
-39.603245 141.16931 -1.7267802 129
-38.849079 141.17636 -1.7245169 153.12212
-37.96571 141.19293 -1.7266847 129
-37.202847 141.20567 -1.7268695 129.42784
-36.489353 141.20973 -1.7240577 155.82024
-35.596386 141.21507 -1.7265558 129
-34.797192 141.22293 -1.7262614 129.98276
-34.084976 141.23355 -1.7240019 155.68912
-33.202938 141.24225 -1.7262895 129
-32.397144 141.25017 -1.7259384 131.79385
-31.683817 141.26917 -1.7239003 153.64694
-30.806534 141.27399 -1.72616 129
-29.972519 141.28267 -1.7248703 140.795
-29.247683 141.29228 -1.7240988 146.93964
-28.400272 141.29472 -1.7256523 129
-27.564749 141.29344 -1.723286 151.11951
-26.760351 141.30115 -1.7252473 129.2494
-26.001585 141.29834 -1.7252342 129
-25.172365 141.29765 -1.7229689 152.15887
-24.350098 141.30043 -1.7249587 129.04968
-23.596888 141.28976 -1.7251526 129
-22.832304 141.29477 -1.7229378 154.04102
-21.966572 141.29106 -1.7247643 129
-21.194876 141.30524 -1.725163 129.24844
-20.47637 141.29822 -1.7223189 157.94226
-19.576487 141.28334 -1.7186496 129.6445
-18.801201 141.28679 -1.7195138 130.13824
-18.080294 141.29468 -1.7187762 156.8502
-17.170843 141.2804 -1.7172771 131.17487
-16.417986 141.27011 -1.7102898 133.70689
-15.654511 141.27954 -1.7137089 161.78078
-14.820105 141.2561 -1.7098024 134.4483
-13.963664 141.2291 -1.7060052 139.83531
-13.231304 141.24216 -1.7047907 156.95364
-12.41629 141.22066 -1.7055799 138.78282
-11.584292 141.21446 -1.7067759 146.66591
-10.77716 141.2019 -1.7038556 157.39285
-9.991437 141.19142 -1.7083508 141.48624
-9.1930637 141.18623 -1.711295 142.3425
-8.4386444 141.21294 -1.7094063 129.88919
-7.5966663 141.21584 -1.7106481 127
-6.7847037 141.21693 -1.7115318 127
-6.007669 141.21515 -1.7142495 127
-5.241363 141.21701 -1.7141286 127
-4.3946133 141.21455 -1.7129481 127
-3.5992813 141.21866 -1.7158011 127
-2.7995172 141.22046 -1.7169933 127
-2.0041008 141.20906 -1.7155136 127
-1.1815516 141.20683 -1.7215099 127
-0.40564665 141.20094 -1.7297524 127
0.3853851 141.20531 -1.7281773 127
1.2271255 141.22603 -1.7183303 127.31982
1.8481768 141.06474 -1.6909846 128.34909
2.7260344 141.15749 -1.6774139 129
3.5820191 141.16794 -1.6654075 128.62263
4.4860578 141.19563 -1.6906217 126.1634
5.2078552 141.23547 -1.6989551 129.44925
6.0167785 141.24242 -1.7243701 134.64525
6.8212094 141.24873 -1.724164 144.96262
7.6434193 141.24335 -1.7246498 156.9295
8.4110565 141.25671 -1.7246622 139.96335
9.2009315 141.26071 -1.7257853 149.61562
10.037257 141.25545 -1.7251046 158.41145
10.788206 141.26025 -1.7256122 143.15814
11.562982 141.25523 -1.7242541 154.1205
12.400401 141.27039 -1.7276435 156.07767
13.201721 141.26695 -1.7274473 147.42702
13.973867 141.24429 -1.7242408 160.69235
14.798034 141.26884 -1.7256217 160.24017
15.582994 141.26288 -1.7266378 149.74054
16.355703 141.2516 -1.7263253 160.43158
17.181526 141.2851 -1.7292269 157.75131
18.008888 141.27219 -1.7300546 148.51334
18.772409 141.26512 -1.7281494 161.96742
19.582508 141.28189 -1.7306722 153.45192
20.401976 141.26752 -1.728755 149.9848
21.2166 141.2641 -1.7250973 168.1311
21.984943 141.2446 -1.7268417 152.22101
22.812744 141.24435 -1.7244229 154.5132
23.605436 141.21754 -1.7219954 167.64769
24.40168 141.20972 -1.7217951 154.92892
25.205952 141.21489 -1.7196376 160.6748
26.026014 141.18959 -1.7176558 162.74289
26.800985 141.21367 -1.7163302 154.68997
27.598885 141.21701 -1.7153413 158.32471
28.419333 141.22256 -1.7132329 160.19032
29.192801 141.24519 -1.7127814 150.5423
29.977455 141.24333 -1.7148992 156.61098
30.809452 141.26366 -1.7132922 158.51515
31.601116 141.2632 -1.7141895 150.4873
32.386063 141.26787 -1.7137256 156.98969
33.198879 141.28796 -1.7157383 160.71136
33.997131 141.27075 -1.7159393 152.60001
34.790043 141.26981 -1.7166721 158.48186
35.591492 141.27217 -1.7168045 159.04382
36.401684 141.25369 -1.7167386 156.51512
37.182663 141.24326 -1.7180125 161.33658
37.977676 141.24492 -1.718583 159.70686
38.783897 141.23116 -1.7179502 157.79361
39.589489 141.2243 -1.720114 160.70403
40.395416 141.22096 -1.7196109 157.81482
41.191895 141.22008 -1.7197723 158.76772
42.002682 141.20775 -1.7188219 158.94661
42.810696 141.21893 -1.7202917 158.52034
43.611458 141.21489 -1.7184134 158.83589
44.395695 141.21342 -1.7193507 157.49739
45.193287 141.20947 -1.7191058 154.2408
45.997623 141.21898 -1.7198792 153.24634
46.796219 141.21095 -1.720172 151.04849
47.590801 141.21217 -1.7205293 147.16531
48.413139 141.20149 -1.7202886 144.02267
49.198952 141.20792 -1.7197832 140.52625
49.988075 141.20644 -1.7219639 137.49928
50.795967 141.20349 -1.7184746 135.36781
51.599712 141.21004 -1.7183559 132.50964
52.392952 141.19827 -1.7190392 130.20697
53.185333 141.20583 -1.7202494 127.94349
53.999943 141.198 -1.719202 127
54.816395 141.20653 -1.7200626 127
55.616169 141.20552 -1.718989 127
56.403572 141.20445 -1.7211276 127.20881
57.194096 141.20435 -1.7197384 127.09831
58.012142 141.19971 -1.7188718 127.26176
58.801708 141.20639 -1.721032 127.11292
59.608398 141.2151 -1.7195197 127
60.403179 141.1989 -1.7177943 127.49593
61.205944 141.20178 -1.7167083 127.57356
62.015968 141.20776 -1.7168489 127.98273
62.798557 141.2095 -1.7186663 127.92789
63.607162 141.20647 -1.7183532 128.52322
64.390228 141.2133 -1.7181793 128.81526
65.180786 141.20351 -1.7177744 128.84732
66.000816 141.21411 -1.7171814 129.485
66.805023 141.2083 -1.7158643 130.2265
67.598686 141.21646 -1.7186545 129.93466
68.39946 141.21008 -1.7170938 130.07423
69.213051 141.19955 -1.7167764 130.01639
70.005478 141.19646 -1.717339 128.66525
70.798302 141.21335 -1.7178984 129.40617
71.605049 141.20699 -1.720382 127.93742
72.409645 141.20261 -1.7196621 127.35152
73.20282 141.20081 -1.7199248 127.27109
73.990723 141.18494 -1.7233049 127.04916
74.79734 141.20168 -1.7221402 127
75.596954 141.21088 -1.7223986 127
76.385353 141.17876 -1.7212178 127
77.187874 141.18153 -1.7241601 127
77.99234 141.19135 -1.7255965 127
78.83551 141.24071 -1.7283088 127
79.61924 141.23102 -1.7292099 127
80.392868 141.19141 -1.7286546 127
81.185555 141.18808 -1.7278541 127
81.981079 141.18883 -1.727497 127
82.823486 141.17307 -1.7327421 127
83.548302 141.19916 -1.7311339 149.01588
84.370415 141.20744 -1.7280415 161.21121
85.187523 141.19649 -1.7286173 156.04738
85.975113 141.17978 -1.7287859 144.9447
86.744156 141.17503 -1.7312841 143.91238
87.574547 141.20816 -1.736007 141.20644
88.478783 141.18535 -1.7090551 131.94969
88.842621 141.21849 -1.6720971 128.98666
90.370995 140.82648 -1.6003809 129
90.758308 141.31117 -1.6025008 129
91.820557 141.15865 -1.6030774 129
92.011627 141.53091 -1.6015582 129
-90.404175 141.99501 -1.6556334 129
-89.956543 142.00203 -1.6654654 128.22194
-89.278786 141.91493 -1.6968893 156.18518
-88.380501 141.92967 -1.6960597 153.84085
-87.580917 141.95428 -1.6954367 153.52229
-86.761261 141.95107 -1.6967636 152.71819
-85.982666 141.96657 -1.7000996 153.92035
-85.189003 141.97874 -1.7056352 165.46695
-84.426537 142.00079 -1.7115747 129
-83.617432 141.99846 -1.6990374 129
-82.79641 142.00081 -1.7012281 129
-81.992599 141.9884 -1.7041149 129
-81.204132 142.00502 -1.7066789 129
-80.384277 142.01242 -1.7101777 129
-79.595215 142.00235 -1.7123553 129
-78.81089 142.01169 -1.7159213 129
-77.979301 141.98262 -1.716547 129
-77.169273 142.00433 -1.7228496 129
-76.39608 142.0042 -1.7354243 129.13118
-75.612785 141.98721 -1.7315441 152.12692
-74.792152 142.00217 -1.734193 130.30383
-73.997047 141.99478 -1.7313648 129.0257
-73.234268 141.98093 -1.7285403 150.8651
-72.397301 141.99107 -1.7312187 129.39825
-71.584709 142.02826 -1.7321224 132.29643
-70.83696 142.02194 -1.7272561 151.29582
-70.024109 142.02692 -1.7301846 129
-69.182701 142.02472 -1.7258997 133.82898
-68.440254 142.01042 -1.7272471 149.9752
-67.608551 142.01833 -1.7229244 129
-66.756783 142.0248 -1.7218404 147.24757
-65.977104 142.03331 -1.7319813 135.54387
-65.199188 142.03212 -1.722012 129
-64.370209 142.02173 -1.7197598 150.32643
-63.560509 142.02991 -1.7213867 129.87614
-62.804581 142.02496 -1.721033 129
-61.980843 142.0143 -1.7195328 150.339
-61.150402 142.02225 -1.7214555 129.17081
-60.387299 142.02109 -1.7212141 129.04388
-59.60445 142.00616 -1.7195573 150.78397
-58.735168 142.01965 -1.7213857 129
-58.001354 141.99367 -1.7220328 129.07918
-57.263245 142.00893 -1.7196324 154.50323
-56.390762 142.00128 -1.7219963 129
-55.599495 142.01215 -1.72237 129.37737
-54.881657 142.01448 -1.7199609 154.14558
-54.004288 142.01172 -1.7223326 129
-53.194469 142.02011 -1.7222559 131.625
-52.470142 142.01079 -1.720095 153.42603
-51.60321 142.01775 -1.7223974 129
-50.759502 141.99747 -1.7212907 141.92215
-50.028236 141.97734 -1.7218239 140.59985
-49.205029 141.98447 -1.7230234 129
-48.351311 141.9765 -1.7211487 148.29306
-47.572086 141.97668 -1.7231615 130.54779
-46.80809 141.98933 -1.7233263 129
-45.944443 141.98148 -1.721974 144.34843
-45.231903 141.98996 -1.7224361 139.61459
-44.389084 142.00664 -1.72374 129
-43.554962 141.99722 -1.721683 150.39677
-42.771664 141.98315 -1.7240989 129.43092
-41.992481 141.97771 -1.7242675 129
-41.209831 141.96941 -1.7220646 153.32399
-40.337429 141.96815 -1.7245017 129
-39.593182 141.9704 -1.7247087 129.03351
-38.865158 141.97235 -1.7223142 154.2832
-37.978489 141.98378 -1.7247554 129
-37.192207 141.99782 -1.7247696 129.62117
-36.475792 141.98099 -1.7227482 154.43631
-35.601093 141.98019 -1.7252293 129
-34.800442 141.99055 -1.7254822 130.16045
-34.090775 141.98814 -1.7227814 154.99623
-33.194382 141.97488 -1.7255999 129
-32.394753 141.97833 -1.7251196 132.66699
-31.667076 141.97618 -1.7233119 153.72356
-30.804993 141.9796 -1.7258745 129
-29.965286 141.98137 -1.72487 140.62708
-29.231619 141.97025 -1.72506 142.5905
-28.398954 141.97827 -1.7263751 129
-27.56459 141.98053 -1.7243522 151.52332
-26.756289 141.98337 -1.7264223 129.28242
-25.995609 141.98798 -1.7265857 129
-25.172577 141.98315 -1.7243011 151.17357
-24.341011 141.98613 -1.7265261 129
-23.601789 141.99001 -1.7267603 129.08253
-22.834124 141.98418 -1.724098 154.62885
-21.959852 141.98656 -1.726774 129
-21.202539 141.9792 -1.7266108 129.1705
-20.47695 141.98494 -1.7238402 156.32463
-19.574766 141.98448 -1.7229434 129
-18.803944 141.98308 -1.7221628 129.38152
-18.084236 141.98521 -1.7209541 155.68787
-17.171843 141.97997 -1.723001 129
-16.404018 141.98 -1.718051 129.40659
-15.672693 141.97615 -1.7196056 152.77719
-14.813795 141.97559 -1.7198309 129
-13.96364 141.97562 -1.7167182 134.88132
-13.244191 141.98125 -1.7130597 151.82739
-12.40701 141.98845 -1.7141091 129.04854
-11.584638 141.98216 -1.7145532 140.10828
-10.783241 141.98239 -1.7125196 146.10335
-9.987566 141.98468 -1.7140633 129
-9.197648 141.98962 -1.7161657 129
-8.413434 141.99191 -1.7144661 127.757
-7.6029563 141.98615 -1.7151916 127
-6.7880335 141.99106 -1.7162187 127
-6.0019832 141.98648 -1.7165117 127
-5.2204342 141.98584 -1.7179683 127
-4.3926783 141.98462 -1.7178856 127
-3.5995433 141.98418 -1.7194896 127
-2.800554 141.99719 -1.7198601 127
-1.9979938 141.98953 -1.7206297 127
-1.1933856 141.98384 -1.7230945 127
-0.39306551 141.98729 -1.730047 127
0.39087704 141.99332 -1.7290088 127
1.1886855 141.98219 -1.7136267 127.54286
1.7907552 141.81117 -1.6807624 128.71817
2.777703 141.94316 -1.6962174 129
3.5331972 141.94815 -1.6809072 126.37374
4.6319213 141.96532 -1.6662476 127.81579
5.2322035 142.00052 -1.7047013 127.11814
6.025228 141.98488 -1.7226255 127
6.8355498 141.99275 -1.724215 141.87866
7.6484561 141.98784 -1.7247704 142.10165
8.3977451 141.99339 -1.7265054 127
9.2005711 141.99612 -1.7270858 141.30748
10.045115 141.98923 -1.7272639 140.66922
10.801167 141.99536 -1.7286035 127
11.559148 141.99724 -1.7275181 143.9705
12.402945 141.9924 -1.7294611 138.79539
13.195335 141.99776 -1.7296355 127
13.956615 142.00073 -1.7272525 143.39763
14.807014 141.99333 -1.7291653 138.54901
15.604923 142.00652 -1.7292832 127
16.347031 142.00351 -1.7272022 145.69617
17.18512 142.00641 -1.7300599 137.48506
17.997616 142.00267 -1.7307441 127.17215
18.743502 142.01859 -1.7279159 146.95911
19.578491 142.01421 -1.7311236 135.97758
20.412258 142.02592 -1.7306056 132.97281
21.184525 142.02063 -1.7292142 149.38625
21.995592 142.02347 -1.7300392 127.41424
22.822826 142.02931 -1.7285172 138.39299
23.5993 142.03352 -1.7269788 142.67024
24.394957 142.03477 -1.7279017 127.1223
25.222908 142.04503 -1.7236378 145.83034
26.052376 142.03165 -1.7230277 134.85641
26.80751 142.04761 -1.7237973 127
27.612059 142.05312 -1.7223812 143.90331
28.460335 142.03435 -1.719703 136.23088
29.21369 142.04602 -1.721884 127
29.992701 142.05107 -1.7218546 143.44846
30.839056 142.03183 -1.7211102 138.46146
31.604427 142.03894 -1.723178 127
32.368851 142.04637 -1.7233418 142.54633
33.212132 142.03375 -1.7225301 139.54485
33.996883 142.03278 -1.7250088 127
34.742863 142.04404 -1.7239227 142.19589
35.572121 142.01776 -1.7244999 139.90529
36.401314 142.01743 -1.7258846 127.01707
37.170681 142.02388 -1.724587 147.24828
37.980877 142.01031 -1.7260396 135.84822
38.826645 142.0303 -1.7267343 135.04881
39.648254 142.0182 -1.7253582 147.49596
40.396919 142.03391 -1.7279489 127.10292
41.21386 142.05023 -1.7274182 137.37837
42.062366 142.03951 -1.7264144 144.57523
42.792648 142.05484 -1.7283101 127
43.619419 142.05742 -1.7275755 136.41003
44.452061 142.04796 -1.726506 145.16814
45.200348 142.06145 -1.7276049 127.80467
46.014313 142.06696 -1.7274719 139.88985
46.85223 142.06665 -1.7256697 147.91418
47.594769 142.07114 -1.7267123 132.06271
48.388924 142.07803 -1.7270511 144.14377
49.235462 142.08342 -1.7254297 149.70383
50.001602 142.08839 -1.726855 135.11981
50.753521 142.08391 -1.7252506 150.02037
51.588837 142.09647 -1.7252258 151.84013
52.402836 142.09346 -1.7258297 140.20908
53.155548 142.08781 -1.7235147 156.92908
53.97942 142.09737 -1.7240132 153.17026
54.795101 142.10046 -1.7249435 142.37273
55.587364 142.10799 -1.7226018 159.72508
56.384277 142.11891 -1.7243452 145.56659
57.201904 142.1265 -1.7240907 143.92929
58.01326 142.12801 -1.7229183 161.09128
58.795547 142.12704 -1.7251763 142.83861
59.614262 142.13078 -1.7241911 151.16803
60.419605 142.09503 -1.7208241 161.12257
61.196911 142.09801 -1.7226841 145.60318
62.00935 142.101 -1.7218988 153.71278
62.826492 142.07309 -1.7214824 157.42767
63.598606 142.07968 -1.7237952 145.92409
64.397659 142.07709 -1.7214819 157.88264
65.2286 142.0627 -1.7187097 158.56413
66.012474 142.05731 -1.7188966 148.30917
66.789238 142.04672 -1.7188873 161.16139
67.609665 142.0369 -1.7201912 156.25366
68.401192 142.04446 -1.7195519 149.13234
69.181206 142.01518 -1.7157065 166.8719
69.999161 142.01729 -1.7170119 157.63829
70.799484 142.01251 -1.7175361 154.55173
71.575066 141.99353 -1.7165999 169.93257
72.392097 141.99577 -1.7211401 154.58011
73.190239 141.99147 -1.7197974 155.34042
73.971161 141.97939 -1.7201606 164.95924
74.794296 141.9693 -1.723771 156.12407
75.592285 141.98523 -1.7256327 138.22198
76.395447 142.07053 -1.6963259 128.97534
77.217873 142.05309 -1.7212766 127.1866
78.009163 142.0182 -1.7319669 127
78.801132 141.99263 -1.728323 127
79.596375 141.99077 -1.7271026 127
80.397858 141.98572 -1.7264209 127
81.199615 141.97615 -1.7273387 127
82.000793 141.98389 -1.7251949 127
82.849434 141.97702 -1.7296557 127
83.566505 142.01283 -1.7333299 146.94405
84.359734 141.99022 -1.7309545 155.55212
85.156723 142.01108 -1.7297337 168.35001
85.955803 141.94206 -1.7293183 161.05981
86.739159 142.00031 -1.7337383 129.13333
87.593468 141.99448 -1.7338037 127
88.534325 141.99738 -1.7102808 127.90114
88.841995 142.04892 -1.6525694 128.98985
91.134575 141.82297 -1.6046647 129
91.3592 142.18199 -1.6045481 129
92.222878 141.98662 -1.6015612 129
-89.901978 142.79485 -1.6641929 128.09589
-89.289253 142.79596 -1.6993209 129
-88.394699 142.82375 -1.6995771 129.168
-87.601418 142.80864 -1.6962267 129.24466
-86.759094 142.8273 -1.7000443 129.75119
-85.974129 142.83707 -1.7024492 129.83318
-85.16362 142.8226 -1.7063063 155.06116
-84.435966 142.79794 -1.7119646 129.05843
-83.608704 142.7881 -1.6976132 129
-82.794029 142.79681 -1.7005175 129
-82.001556 142.81793 -1.7045904 129
-81.206909 142.78008 -1.7054604 129
-80.385979 142.79599 -1.7068949 129
-79.594246 142.79781 -1.7119188 129
-78.79586 142.79436 -1.7148205 129
-77.995476 142.79666 -1.7166632 129
-77.173561 142.80133 -1.7230109 129
-76.399254 142.80016 -1.7366074 129.07536
-75.619667 142.7863 -1.7319781 153.80537
-74.797249 142.80498 -1.7340705 129.724
-74.008705 142.81523 -1.7328172 129.05936
-73.236237 142.78374 -1.7288945 149.86093
-72.416206 142.78207 -1.7332788 129.5
-71.563553 142.73749 -1.7306025 133.61566
-70.82106 142.76247 -1.7283102 150.61827
-70.029686 142.79375 -1.7337238 129
-69.178947 142.76276 -1.7259134 137.46205
-68.437782 142.78932 -1.728851 149.64745
-67.59536 142.80482 -1.7208245 129
-66.771103 142.7907 -1.7220265 147.95422
-65.967331 142.79735 -1.7317033 136.30222
-65.203758 142.81192 -1.7210512 129
-64.374008 142.78275 -1.7177347 151.4906
-63.553226 142.80246 -1.7198772 129.80219
-62.802673 142.77924 -1.7206389 129
-62.000679 142.77869 -1.7173979 153.21471
-61.14389 142.75835 -1.7196343 129
-60.412319 142.75395 -1.7202247 129.04915
-59.61562 142.75864 -1.7172461 154.03716
-58.752838 142.75551 -1.7201885 129
-57.990124 142.75587 -1.7203199 129.88898
-57.2855 142.76938 -1.7172529 155.72021
-56.394676 142.76332 -1.7205231 129
-55.583946 142.76704 -1.7199857 132.12988
-54.880611 142.77194 -1.7178526 153.81677
-53.995113 142.77022 -1.7203677 129
-53.172081 142.76894 -1.7192743 139.60715
-52.443768 142.76411 -1.7190751 145.45282
-51.595493 142.76965 -1.720685 129
-50.76561 142.75562 -1.7188637 146.93773
-49.998672 142.76976 -1.7199653 136.83206
-49.198547 142.76331 -1.720783 129
-48.36256 142.78098 -1.7185378 152.18324
-47.565109 142.75363 -1.7207441 129.43481
-46.794086 142.77022 -1.7208527 129
-45.971638 142.75677 -1.7191399 146.509
-45.177319 142.75313 -1.7203602 135.32812
-44.406506 142.76328 -1.7209797 129
-43.570599 142.76161 -1.7187554 151.77495
-42.743393 142.76125 -1.7210492 129.09351
-41.998425 142.75308 -1.7213392 129
-41.234085 142.75269 -1.7191218 152.74199
-40.361595 142.76404 -1.721294 129
-39.603653 142.75938 -1.7214634 129.40656
-38.866138 142.76538 -1.7189945 155.4911
-37.987625 142.77826 -1.721792 129
-37.194218 142.77953 -1.7209823 133.507
-36.47525 142.79524 -1.7196438 152.35817
-35.604347 142.77855 -1.7217215 129
-34.782703 142.78583 -1.7210118 134.81642
-34.056442 142.78738 -1.7197673 150.59674
-33.206604 142.77116 -1.7220776 129
-32.370144 142.76909 -1.7210519 138.84914
-31.654455 142.76701 -1.7206608 146.56071
-30.793427 142.76691 -1.7224084 129
-29.958765 142.77724 -1.720662 146.63425
-29.209824 142.78236 -1.7218878 137.78798
-28.398249 142.78271 -1.7226224 129
-27.572733 142.79599 -1.7206588 150.90343
-26.755756 142.80133 -1.7226497 129
-26.0009 142.7993 -1.7228907 129
-25.191298 142.79463 -1.7208827 151.31599
-24.346954 142.80759 -1.7228918 129
-23.595142 142.8159 -1.7229201 129.06412
-22.857395 142.80267 -1.720921 153.78688
-21.972616 142.80939 -1.723356 129
-21.200144 142.80281 -1.7228929 129.92308
-20.47785 142.78845 -1.7209073 154.67926
-19.578854 142.79422 -1.7208971 129
-18.80411 142.79289 -1.7171314 132.21565
-18.071968 142.7925 -1.7183831 153.04355
-17.18796 142.78722 -1.7214684 129
-16.409491 142.79012 -1.7144362 131.42397
-15.665126 142.79178 -1.7155247 154.93341
-14.787271 142.79282 -1.7155123 129
-13.969679 142.7959 -1.7129742 138.90326
-13.232831 142.77779 -1.7115362 148.57912
-12.394551 142.7767 -1.7099983 129
-11.575513 142.78253 -1.7123995 141.96365
-10.786125 142.79222 -1.70915 149.87126
-9.9863548 142.79041 -1.7130015 129
-9.1985741 142.7812 -1.7142956 129
-8.4038763 142.7925 -1.713065 127.63914
-7.5972152 142.78641 -1.7143073 127
-6.7916393 142.79103 -1.714542 127
-6.0090313 142.79225 -1.7161707 127
-5.2205849 142.78506 -1.7162055 127
-4.4054508 142.78598 -1.7172382 127
-3.5964258 142.78513 -1.7184644 127
-2.7978091 142.79756 -1.7189965 127
-2.0054002 142.78812 -1.7192069 127
-1.1934415 142.78571 -1.7210257 127
-0.39021492 142.78784 -1.7308952 127
0.3861044 142.78955 -1.7307073 127
1.1634077 142.79201 -1.7113833 127.65333
2.0600364 142.85207 -1.674978 128.98354
2.7928779 142.82671 -1.6992844 129
3.5455482 142.78522 -1.7015491 124.17242
4.6778812 142.80345 -1.6570915 127.94444
5.2203221 142.78487 -1.7039666 127.09479
6.018641 142.77371 -1.7202966 127
6.8303795 142.77295 -1.7209713 140.94775
7.6630254 142.769 -1.7211555 141.46069
8.4055681 142.77512 -1.7244662 127
9.2077131 142.77428 -1.7246509 140.82899
10.049114 142.776 -1.7240889 139.30904
10.799429 142.77666 -1.7266755 127
11.548846 142.77254 -1.7255501 143.65077
12.391906 142.77715 -1.7265553 137.95187
13.19713 142.77415 -1.7280228 127
13.960065 142.78746 -1.725057 142.48424
14.810431 142.78358 -1.7270871 137.75612
15.599649 142.78328 -1.7276374 127
16.338142 142.78896 -1.7260671 144.83546
17.185274 142.78624 -1.7282386 135.92581
18.001059 142.78249 -1.7285095 127.40105
18.750748 142.78922 -1.7261673 149.0045
19.582434 142.77956 -1.7283405 133.60248
20.41963 142.78224 -1.7287333 133.96086
21.19309 142.7803 -1.7266374 146.91617
21.999704 142.78687 -1.7283686 127.34708
22.829027 142.78268 -1.7263144 139.81818
23.618448 142.78967 -1.7253516 140.93277
24.398905 142.78258 -1.7257861 127.20988
25.23354 142.78436 -1.7234583 144.87222
26.052942 142.79933 -1.722476 134.37299
26.798529 142.78508 -1.7221526 127
27.603727 142.78142 -1.7215557 146.06618
28.450235 142.79263 -1.7189523 136.18686
29.195309 142.78584 -1.7216812 127
29.983292 142.78142 -1.7211229 144.27789
30.835224 142.78342 -1.7199137 137.24728
31.601946 142.78767 -1.7222626 127
32.363663 142.78491 -1.721354 144.3542
33.218849 142.78859 -1.7209258 137.12018
34.002964 142.78777 -1.7235689 127
34.74741 142.78253 -1.7216532 145.82663
35.579647 142.7811 -1.7234081 136.78917
36.404556 142.77806 -1.7243973 127
37.172108 142.78476 -1.7226158 148.53125
37.98735 142.78067 -1.7248555 132.91119
38.825119 142.77563 -1.7244606 138.30977
39.640965 142.78098 -1.724499 143.14397
40.40419 142.78328 -1.7263823 127.01759
41.223633 142.77972 -1.7256346 140.57552
42.053535 142.78711 -1.7256162 140.65155
42.803116 142.7919 -1.7269337 127
43.626904 142.78351 -1.725932 139.08975
44.444759 142.78674 -1.725374 142.30136
45.196793 142.78883 -1.727419 127.0334
46.015972 142.78584 -1.7260938 139.91003
46.849312 142.79431 -1.7254199 141.57953
47.607189 142.78575 -1.7272681 127
48.391354 142.78705 -1.7257243 140.55853
49.236355 142.79248 -1.7254132 141.12427
49.999271 142.78964 -1.7273817 127
50.749863 142.79172 -1.7253001 142.94244
51.588467 142.7944 -1.7264234 138.42026
52.40107 142.78923 -1.7271706 127.01752
53.149036 142.78799 -1.7246321 143.69649
53.977348 142.78441 -1.7262334 137.61794
54.806637 142.78589 -1.7264512 127.95385
55.594849 142.78993 -1.7245144 152.08772
56.393375 142.78899 -1.7267116 130.61485
57.210148 142.79359 -1.7266625 130.86392
58.010429 142.79401 -1.7248424 150.99702
58.797913 142.78168 -1.7276133 127.2623
59.619694 142.78061 -1.727803 135.31737
60.440723 142.77838 -1.7264324 145.38255
61.197853 142.77351 -1.7283789 127
62.024853 142.77106 -1.7269293 138.4425
62.855961 142.78049 -1.7255797 142.70947
63.599041 142.77904 -1.7274644 127
64.384911 142.77487 -1.7258059 140.08856
65.234955 142.78903 -1.7261633 140.48668
65.999283 142.78888 -1.726925 127
66.756683 142.78548 -1.725233 141.72864
67.608261 142.80011 -1.7266877 140.09233
68.408447 142.80415 -1.7288235 127.3547
69.15432 142.80154 -1.7256029 145.60091
69.976486 142.81418 -1.7280143 135.49712
70.795578 142.81653 -1.7285156 127.8842
71.567383 142.81859 -1.7261831 150.19334
72.39135 142.83231 -1.7284462 130.20778
73.217979 142.84575 -1.7299466 134.63255
73.977966 142.86395 -1.7294147 148.84528
74.787758 142.85657 -1.7330639 128.83949
75.576332 142.83354 -1.7339288 127.03059
76.205833 142.79762 -1.6919123 128.28426
77.332848 142.64104 -1.6878449 127.56662
78.035065 142.74524 -1.7247356 127.02273
78.796852 142.7847 -1.7277129 127
79.600624 142.79091 -1.726427 127
80.391426 142.7942 -1.7253864 127
81.186905 142.78218 -1.7271529 127
81.973152 142.7724 -1.7288253 127
82.798248 142.79097 -1.7300823 127
83.609291 142.80267 -1.7336829 154.2
84.368828 142.82417 -1.7330717 152.65883
85.172867 142.84627 -1.7304307 155.89494
85.987434 142.83002 -1.7348422 147.78088
86.777863 142.82997 -1.7306623 143.16327
87.581215 142.79657 -1.7326299 141.66292
88.534142 142.80386 -1.709497 130.9203
88.858833 142.75655 -1.6611893 128.93221
91.700546 142.81252 -1.6027783 129
92.551895 142.74716 -1.6018282 129
-89.868195 143.58508 -1.6681746 127.90578
-89.268105 143.59885 -1.6969479 130.64706
-88.431473 143.58989 -1.6962248 129.16364
-87.567459 143.60683 -1.696292 129
-86.761887 143.58969 -1.7000046 129.65968
-85.963333 143.60339 -1.7009083 129.88622
-85.173386 143.60306 -1.7046789 153.33794
-84.442787 143.59892 -1.7111336 129.03979
-83.611649 143.60146 -1.6999166 129
-82.779655 143.58588 -1.7001407 129
-82.002144 143.60953 -1.7029595 129
-81.199867 143.59229 -1.7054358 129
-80.398117 143.59291 -1.711381 129
-79.596809 143.58472 -1.7129819 129
-78.797058 143.62926 -1.7144284 129
-77.996567 143.6156 -1.7180567 129
-77.16243 143.59386 -1.7257243 129
-76.405922 143.59836 -1.7359366 129.15016
-75.626808 143.60092 -1.7321409 154.30458
-74.806183 143.63591 -1.7335156 145.94048
-74.005005 143.6227 -1.7324661 143.96008
-73.252205 143.61966 -1.7308986 159.75255
-72.418877 143.64111 -1.7338358 140.6069
-71.596718 143.65025 -1.7328941 143.45078
-70.828041 143.61609 -1.726166 157.80879
-70.013168 143.60141 -1.7333492 137.11856
-69.196915 143.65323 -1.7314931 140.56708
-68.452194 143.62939 -1.7314209 155.56956
-67.594467 143.65816 -1.7212309 132.07317
-66.756386 143.63953 -1.7218412 149.81052
-65.963425 143.63373 -1.7337782 137.10973
-65.193924 143.66588 -1.7191198 129.45985
-64.383034 143.66542 -1.7178838 149.55431
-63.564163 143.67027 -1.7205493 130.43277
-62.792191 143.61871 -1.7187369 129.07004
-61.996445 143.5929 -1.7178119 151.50601
-61.143024 143.5919 -1.7199242 129
-60.393944 143.54776 -1.718971 129
-59.624203 143.56709 -1.7177672 151.33209
-58.750488 143.55586 -1.7199016 129
-57.999981 143.55666 -1.7196063 129.7372
-57.277458 143.54744 -1.7170601 156.26537
-56.401474 143.56233 -1.7203214 129
