# .PCD v0.7 - Point Cloud Data file format
VERSION 0.7
FIELDS x y z intensity
SIZE 4 4 4 4
TYPE F F F F
COUNT 1 1 1 1
WIDTH 1334
HEIGHT 1
VIEWPOINT 0 0 0 1 0 0 0
POINTS 1334
DATA ascii
154.29936 -54.922771 -1.7373774 255
154.53044 -54.922951 -1.7506983 255
154.96922 -54.945473 -1.6928322 255
155.09911 -54.914505 -1.7286615 255
155.20532 -54.948673 -1.708382 255
-15.62413 -54.699841 -1.6700729 255
-15.473719 -54.696281 -1.6630871 255
-15.30262 -54.682545 -1.6559016 255
-15.13515 -54.697357 -1.6575385 255
-14.931162 -54.692635 -1.6616514 255
-14.640011 -54.682835 -1.6717125 255
-14.462051 -54.686848 -1.6673678 255
-14.293846 -54.679466 -1.6801198 255
-14.073454 -54.689411 -1.6669117 255
-13.867408 -54.681919 -1.6642905 255
-13.674281 -54.669292 -1.6729379 255
-13.52357 -54.686916 -1.6693016 255
-13.267837 -54.688702 -1.6744294 255
-13.041157 -54.667522 -1.6802813 255
-12.918735 -54.680981 -1.674334 255
-12.478957 -54.733265 -1.6518909 255
-12.303867 -54.7435 -1.6867707 255
-12.12553 -54.736553 -1.6852111 255
-11.874446 -54.755138 -1.6899878 255
-11.722131 -54.722538 -1.6913332 255
-11.478355 -54.74749 -1.6858431 255
-11.310614 -54.737175 -1.6875553 255
-11.096641 -54.738007 -1.6948096 255
-10.920028 -54.730488 -1.6923174 255
-10.701475 -54.718067 -1.6958125 255
-10.512403 -54.73922 -1.6939558 255
-10.276218 -54.717762 -1.7000606 255
-10.11465 -54.711407 -1.7015288 255
-9.9209967 -54.723568 -1.6944607 255
-9.6740389 -54.745827 -1.666959 255
-9.5248327 -54.782757 -1.6050727 255
18.483669 -54.723793 -1.6980635 255
18.69912 -54.705433 -1.7095619 255
18.918785 -54.692963 -1.7049272 255
19.099852 -54.68969 -1.7199222 255
19.311846 -54.69228 -1.7092328 255
19.493095 -54.695995 -1.7114568 255
19.691465 -54.696617 -1.7148143 255
19.907988 -54.695461 -1.7056583 255
20.097067 -54.683399 -1.7182986 255
20.301315 -54.693863 -1.7121865 255
20.497789 -54.687187 -1.7171676 255
20.695518 -54.701611 -1.7146719 255
20.911253 -54.685169 -1.7104634 255
21.104502 -54.704365 -1.7121506 255
21.291138 -54.688728 -1.7187057 255
21.503206 -54.668686 -1.7192986 255
21.653008 -54.704605 -1.714553 255
22.576548 -54.604828 -1.711593 255
22.842085 -54.624653 -1.7112635 255
23.064974 -54.616238 -1.7076104 255
23.495554 -54.609734 -1.7110165 255
23.732307 -54.743999 -1.7043762 255
23.862169 -54.627022 -1.709347 255
24.148842 -54.771152 -1.7007421 255
24.522324 -54.620155 -1.7089999 255
29.367451 -54.683781 -1.728671 255
29.515974 -54.704136 -1.7106243 255
29.72529 -54.699104 -1.7139521 255
29.900251 -54.687313 -1.7160373 255
30.083757 -54.693558 -1.7147949 255
30.30028 -54.65897 -1.7131203 255
30.505831 -54.650543 -1.7181088 255
30.695751 -54.652225 -1.7180583 255
30.903221 -54.653637 -1.7087218 255
31.093657 -54.644726 -1.7183555 255
31.299086 -54.638721 -1.7101475 255
31.513399 -54.652325 -1.7152184 255
31.689932 -54.642658 -1.7123615 255
31.903469 -54.64249 -1.7162191 255
32.104977 -54.633598 -1.7161908 255
32.288689 -54.648232 -1.7197272 255
32.505531 -54.632435 -1.7157497 255
32.678776 -54.63517 -1.7137651 255
32.932869 -54.63047 -1.7091484 255
33.087353 -54.628502 -1.7129179 255
33.299942 -54.632141 -1.7165279 255
33.495789 -54.624519 -1.7120124 255
33.717781 -54.618938 -1.7104678 255
33.88884 -54.623341 -1.71535 255
34.094959 -54.616718 -1.7125922 255
34.303574 -54.618603 -1.7210747 255
34.462296 -54.611877 -1.7140497 255
34.720764 -54.61047 -1.7144902 255
34.891895 -54.610493 -1.71215 255
35.127789 -54.605469 -1.7120272 255
35.323818 -54.606163 -1.7137169 255
35.481701 -54.602131 -1.7168843 255
35.687614 -54.60228 -1.7150373 255
35.827038 -54.605003 -1.7042823 255
84.548958 -54.639004 -1.7035513 255
84.724457 -54.678902 -1.7057475 255
84.908913 -54.685265 -1.7134243 255
85.1007 -54.673191 -1.7177473 255
85.304085 -54.68491 -1.6978288 255
85.485451 -54.679996 -1.7122113 255
85.711212 -54.681767 -1.7155907 255
85.899948 -54.681202 -1.7105008 255
86.084473 -54.678612 -1.7031596 255
86.299416 -54.681232 -1.7111839 255
86.49025 -54.67337 -1.7127241 255
86.693314 -54.679131 -1.7154591 255
86.912415 -54.673981 -1.7059174 255
87.088554 -54.666714 -1.7051274 255
87.30056 -54.693489 -1.7146752 255
87.502754 -54.667507 -1.7135164 255
87.655388 -54.676773 -1.7155557 255
87.918488 -54.787296 -1.6951555 255
88.09816 -54.782864 -1.7009528 255
88.290611 -54.78418 -1.714776 255
88.512779 -54.777897 -1.7059087 255
88.68441 -54.783314 -1.6948748 255
88.900063 -54.778824 -1.7215861 255
89.114975 -54.77808 -1.712204 255
89.314697 -54.777763 -1.6984842 255
89.479744 -54.774502 -1.716863 255
89.718048 -54.771675 -1.6956069 255
89.896713 -54.773109 -1.712937 255
90.088837 -54.767902 -1.7137451 255
90.312958 -54.76976 -1.7108811 255
90.492157 -54.769768 -1.7023308 255
90.69825 -54.765827 -1.7116795 255
90.842979 -54.76088 -1.7099464 255
95.511154 -54.71138 -1.7188981 255
95.685402 -54.692986 -1.7142794 255
95.908562 -54.698296 -1.7052346 255
96.120644 -54.697521 -1.7115064 255
96.239883 -54.678982 -1.7131335 255
98.166542 -54.755783 -1.7110528 255
98.286354 -54.766933 -1.7199558 255
98.532608 -54.749565 -1.7034521 255
98.69062 -54.740582 -1.7176993 255
98.919716 -54.728065 -1.711768 255
99.11628 -54.712044 -1.7099578 255
99.302429 -54.711166 -1.7022088 255
99.507973 -54.698982 -1.715214 255
99.695572 -54.694683 -1.7098159 255
99.877907 -54.693928 -1.7107316 255
100.10999 -54.693684 -1.708702 255
100.3088 -54.709591 -1.7112149 255
100.47969 -54.688171 -1.7086486 255
100.70682 -54.7197 -1.7118881 255
100.88564 -54.72094 -1.7058926 255
101.08672 -54.720753 -1.7147313 255
101.31357 -54.713776 -1.7144423 255
101.49193 -54.7258 -1.7096844 255
101.67521 -54.715229 -1.702208 255
101.93519 -54.716972 -1.7119124 255
102.08278 -54.726414 -1.7185377 255
102.31099 -54.724892 -1.715344 255
102.50574 -54.711823 -1.7023014 255
102.69518 -54.724598 -1.7134835 255
102.89594 -54.723099 -1.7152129 255
103.09283 -54.716831 -1.7100391 255
103.28498 -54.71843 -1.7112027 255
103.41505 -54.71241 -1.7096866 255
148.26749 -54.77655 -1.6847652 255
149.15411 -54.710705 -1.7886243 255
149.36392 -54.666145 -1.7442366 255
149.50786 -54.707592 -1.7079535 255
149.69765 -54.697956 -1.716499 255
149.86513 -54.703106 -1.7026486 255
150.05829 -54.684319 -1.7208196 255
150.37077 -54.633606 -1.7480873 255
150.57314 -54.692005 -1.7872024 255
150.69373 -54.695015 -1.755553 255
150.93349 -54.683544 -1.7009956 255
151.09593 -54.707081 -1.6997554 255
151.20592 -54.684437 -1.7114995 255
151.43864 -54.680859 -1.7668569 255
151.72263 -54.690311 -1.7120093 255
151.84419 -54.716431 -1.6870751 255
153.22589 -54.707775 -1.6762592 255
153.50322 -54.629063 -1.6835759 255
154.2991 -54.771587 -1.7719836 255
154.5679 -54.715618 -1.7637669 255
-15.629559 -54.495083 -1.6690933 255
-15.475451 -54.505421 -1.664685 255
-15.28645 -54.50177 -1.6574777 255
-15.079223 -54.511452 -1.6730543 255
-14.955419 -54.501015 -1.6671202 255
-14.678032 -54.514942 -1.662342 255
-14.471633 -54.486721 -1.6696614 255
-14.296147 -54.503918 -1.6796597 255
-14.128735 -54.502396 -1.6712251 255
-13.905096 -54.49234 -1.6641885 255
-13.672912 -54.506016 -1.6751305 255
-13.516027 -54.498329 -1.6777118 255
-13.281345 -54.497372 -1.6759784 255
-13.101691 -54.502296 -1.6710937 255
-12.924185 -54.502666 -1.6752758 255
-11.414565 -54.417461 -1.6686521 255
-11.363589 -54.431614 -1.6652297 255
-10.898227 -54.593079 -1.6950661 255
-10.62969 -54.449471 -1.6855615 255
-10.562912 -54.498142 -1.6959893 255
-10.269662 -54.591293 -1.6989125 255
-9.877615 -54.425583 -1.7010043 255
-9.7615967 -54.427418 -1.6908461 255
18.45756 -54.599171 -1.6636746 255
18.734344 -54.550327 -1.6849989 255
18.906185 -54.581367 -1.7156836 255
19.098997 -54.562271 -1.7206099 255
19.282907 -54.580822 -1.7106669 255
19.492397 -54.587589 -1.7097429 255
19.714575 -54.565338 -1.7182305 255
19.86986 -54.56871 -1.7061371 255
20.113411 -54.547676 -1.7060773 255
20.30044 -54.575153 -1.7100079 255
20.497358 -54.579174 -1.7144909 255
20.677998 -54.552868 -1.7129701 255
20.915897 -54.557899 -1.7021209 255
21.079952 -54.575172 -1.7050401 255
21.313057 -54.553699 -1.715644 255
21.51405 -54.571144 -1.7119406 255
21.685213 -54.526806 -1.6930858 255
21.901175 -54.478779 -1.7243037 255
22.101391 -54.470917 -1.7091017 255
22.309114 -54.478344 -1.7125139 255
22.476479 -54.475281 -1.7105371 255
22.696829 -54.492168 -1.7123127 255
22.915154 -54.467999 -1.7198105 255
23.089663 -54.469296 -1.7051123 255
23.313028 -54.46648 -1.7132602 255
23.484798 -54.469349 -1.7131267 255
23.70557 -54.463997 -1.7086698 255
23.899599 -54.470161 -1.7164954 255
24.114895 -54.456375 -1.7085888 255
24.294949 -54.460617 -1.7121609 255
24.483381 -54.472675 -1.7215142 255
24.711512 -54.450779 -1.7149951 255
24.856247 -54.457146 -1.7133187 255
25.012924 -54.51717 -1.7123446 255
29.371454 -54.542622 -1.7303132 255
29.526384 -54.491955 -1.7155299 255
29.733267 -54.521717 -1.7121352 255
29.904842 -54.50193 -1.71401 255
30.083403 -54.527367 -1.7138821 255
30.290503 -54.567684 -1.7087932 255
30.52178 -54.562336 -1.7162126 255
30.700478 -54.56036 -1.7114185 255
30.913891 -54.552757 -1.7102301 255
31.099373 -54.564678 -1.7173585 255
31.299484 -54.54781 -1.7092053 255
31.496838 -54.557247 -1.7156404 255
31.696602 -54.546585 -1.7114577 255
31.911373 -54.550171 -1.7141922 255
32.088223 -54.553452 -1.7178867 255
32.299137 -54.534748 -1.7137184 255
32.501854 -54.543373 -1.7130522 255
32.694641 -54.534096 -1.7130185 255
32.895615 -54.54842 -1.7126819 255
33.105309 -54.527683 -1.7092339 255
33.292767 -54.537983 -1.7099802 255
33.500237 -54.537525 -1.713048 255
33.705433 -54.530468 -1.7113444 255
33.895714 -54.543488 -1.7114087 255
34.101074 -54.511032 -1.7119783 255
34.295799 -54.539181 -1.7187927 255
34.513145 -54.530403 -1.7149962 255
34.693161 -54.52224 -1.7147738 255
34.906849 -54.515484 -1.7078773 255
35.096458 -54.52021 -1.7097843 255
35.298832 -54.522278 -1.7180897 255
35.511089 -54.504864 -1.7120445 255
35.704002 -54.519321 -1.7126472 255
35.903103 -54.498569 -1.7152189 255
36.099625 -54.509689 -1.7069862 255
36.296078 -54.508499 -1.7102038 255
36.487984 -54.503819 -1.7184553 255
36.696171 -54.504715 -1.7165601 255
36.895561 -54.499359 -1.7084973 255
37.095371 -54.493519 -1.7177821 255
37.30035 -54.494781 -1.7076176 255
37.495903 -54.497948 -1.71548 255
37.712471 -54.477642 -1.7114978 255
37.890881 -54.483315 -1.7125108 255
38.099636 -54.497013 -1.7047988 255
38.295109 -54.472645 -1.7103208 255
38.496651 -54.483681 -1.7135122 255
38.702763 -54.464043 -1.705699 255
38.893002 -54.464634 -1.7100466 255
39.084679 -54.46241 -1.7130735 255
39.29678 -54.46312 -1.7156955 255
39.492458 -54.46291 -1.7091671 255
39.720505 -54.446365 -1.7082431 255
39.916851 -54.46191 -1.71128 255
40.09951 -54.450108 -1.7174181 255
40.294823 -54.45488 -1.7121664 255
40.481041 -54.442497 -1.7030414 255
40.700935 -54.446762 -1.7192762 255
40.908043 -54.446705 -1.7087423 255
41.113152 -54.443165 -1.7136019 255
41.296597 -54.444603 -1.7168463 255
41.493504 -54.429874 -1.7097181 255
41.701138 -54.4394 -1.7099445 255
41.901524 -54.431152 -1.7190322 255
42.090282 -54.433292 -1.7111279 255
42.297348 -54.434994 -1.7116126 255
42.505394 -54.427696 -1.7066005 255
42.697418 -54.431568 -1.7083837 255
42.906578 -54.425575 -1.7088002 255
43.097477 -54.424606 -1.7157079 255
43.293007 -54.419773 -1.7138144 255
43.484089 -54.419228 -1.7072152 255
43.716888 -54.417336 -1.7131809 255
43.820004 -54.416164 -1.7145859 255
84.530342 -54.487564 -1.7088159 255
84.707207 -54.499397 -1.6986858 255
84.912781 -54.484676 -1.7206032 255
85.101578 -54.485588 -1.7183949 255
85.296272 -54.484146 -1.7099409 255
85.502678 -54.47858 -1.715844 255
85.696648 -54.49535 -1.7172875 255
85.906258 -54.490265 -1.7124805 255
86.101395 -54.480385 -1.7110618 255
86.295929 -54.492294 -1.715203 255
86.511154 -54.486389 -1.7132956 255
86.705879 -54.480701 -1.7181841 255
86.904099 -54.486679 -1.7087055 255
87.099831 -54.499912 -1.7096786 255
87.298981 -54.470562 -1.7128605 255
87.500954 -54.490562 -1.7146269 255
87.681816 -54.494114 -1.7176878 255
95.54998 -54.499599 -1.7031235 255
95.701859 -54.497528 -1.7214576 255
95.907646 -54.504822 -1.7045689 255
96.103531 -54.481529 -1.7163594 255
96.265129 -54.490276 -1.7136221 255
99.147362 -54.596081 -1.7083733 255
99.312141 -54.582012 -1.7094026 255
99.52993 -54.570885 -1.715518 255
99.700523 -54.55452 -1.7158532 255
99.905327 -54.555756 -1.7121007 255
100.10309 -54.538002 -1.7085624 255
100.27226 -54.539696 -1.7009133 255
100.51487 -54.513939 -1.7149565 255
100.62961 -54.484356 -1.7167783 255
149.2182 -54.542831 -1.7911627 255
149.44299 -54.514706 -1.7080936 255
149.69122 -54.506546 -1.7171036 255
149.87218 -54.527645 -1.699744 255
150.07465 -54.496235 -1.7514793 255
150.3784 -54.49889 -1.7467756 255
150.5692 -54.474377 -1.698893 255
150.69612 -54.513603 -1.7207277 255
150.94807 -54.508083 -1.7096809 255
151.10544 -54.528893 -1.703426 255
151.50111 -54.492229 -1.7364037 255
151.70625 -54.530708 -1.6868918 255
151.85439 -54.507542 -1.7606311 255
152.46721 -54.448051 -1.7133515 255
152.73732 -54.479591 -1.6964091 255
152.82048 -54.417343 -1.7039403 255
153.44977 -54.496155 -1.6830367 255
154.18808 -54.423721 -1.6845595 255
154.79457 -54.494598 -1.745082 255
154.85844 -54.438099 -1.7004358 255
155.10922 -54.476936 -1.7014157 255
-15.611679 -54.314423 -1.6719807 255
-15.496107 -54.338642 -1.6568038 255
-15.294718 -54.333958 -1.6618971 255
-15.037422 -54.357029 -1.6830845 255
-14.930177 -54.29977 -1.6749622 255
-14.773087 -54.350758 -1.6515617 255
-14.497938 -54.336422 -1.6663758 255
-14.265628 -54.326523 -1.6737281 255
-14.15588 -54.354065 -1.6930743 255
-13.905794 -54.336205 -1.6661431 255
-13.669538 -54.339039 -1.6764357 255
-13.474981 -54.31609 -1.6781731 255
-13.28198 -54.344097 -1.6680495 255
-13.120657 -54.316235 -1.6694343 255
-12.908149 -54.334126 -1.6778207 255
-12.450154 -54.250076 -1.676968 255
-12.316204 -54.261917 -1.6690056 255
-12.06586 -54.248245 -1.6874787 255
-11.927083 -54.251923 -1.6884998 255
-11.720874 -54.231575 -1.6816784 255
-11.504205 -54.261124 -1.6810408 255
-11.336128 -54.258324 -1.6853083 255
-11.102002 -54.237335 -1.6930418 255
-10.887122 -54.241138 -1.6832047 255
-10.718513 -54.270527 -1.6920856 255
-10.500364 -54.237057 -1.6846613 255
-10.348415 -54.239361 -1.6951833 255
-10.055754 -54.225178 -1.6762642 255
-9.8687057 -54.309414 -1.6858015 255
-9.7308331 -54.310387 -1.6920537 255
19.987162 -54.354099 -1.7006212 255
20.011242 -54.386116 -1.7009777 255
20.723089 -54.316669 -1.6983517 255
20.861917 -54.335522 -1.702652 255
21.193838 -54.3727 -1.6985697 255
21.310869 -54.381004 -1.7037332 255
21.767828 -54.302593 -1.6719898 255
21.941626 -54.31897 -1.7060987 255
22.101873 -54.296886 -1.7124879 255
22.297119 -54.29628 -1.7085407 255
22.494556 -54.303608 -1.7123041 255
22.698973 -54.296764 -1.7144819 255
22.909914 -54.296898 -1.7157872 255
23.095448 -54.307835 -1.7105403 255
23.292402 -54.303909 -1.7113301 255
23.496096 -54.288494 -1.7095793 255
23.695644 -54.300556 -1.710739 255
23.897215 -54.299423 -1.7169636 255
24.10269 -54.304138 -1.7067035 255
24.295961 -54.297825 -1.7162027 255
24.504507 -54.304653 -1.717683 255
24.69845 -54.281654 -1.7157418 255
24.847656 -54.304249 -1.7137744 255
29.497253 -54.303486 -1.7087878 255
29.724487 -54.298168 -1.7165961 255
29.90147 -54.286118 -1.7136965 255
30.083941 -54.288155 -1.7145389 255
30.211288 -54.297722 -1.7154458 255
32.238594 -54.395718 -1.784443 255
35.529465 -54.396492 -1.6909298 255
35.770348 -54.393158 -1.7019396 255
35.895325 -54.397594 -1.7031856 255
36.147644 -54.394123 -1.7164738 255
36.272842 -54.393497 -1.6987247 255
36.498901 -54.391487 -1.7233524 255
36.726883 -54.389484 -1.7150174 255
36.910252 -54.386791 -1.7110977 255
37.10284 -54.387302 -1.716658 255
37.288456 -54.381863 -1.7070338 255
37.47509 -54.380295 -1.7165635 255
37.686901 -54.378693 -1.7119582 255
37.87833 -54.37846 -1.7093778 255
38.10305 -54.372967 -1.7139267 255
38.290543 -54.374264 -1.7068645 255
38.524979 -54.367863 -1.7150528 255
38.701233 -54.36824 -1.703969 255
38.922367 -54.366753 -1.7081788 255
39.089375 -54.365124 -1.7139 255
39.282635 -54.360733 -1.7166921 255
39.501244 -54.357494 -1.7120459 255
39.690971 -54.358871 -1.7109076 255
39.923573 -54.352837 -1.7054197 255
40.113014 -54.355701 -1.7174577 255
40.327171 -54.349712 -1.7100677 255
40.500217 -54.350677 -1.705363 255
40.681667 -54.344868 -1.7183213 255
40.894554 -54.3423 -1.7048408 255
41.082081 -54.348083 -1.712996 255
41.308292 -54.339962 -1.7171725 255
41.513721 -54.334534 -1.710758 255
41.697716 -54.333302 -1.7140858 255
41.914204 -54.33128 -1.7167794 255
42.106842 -54.344742 -1.7062446 255
42.294647 -54.326599 -1.711373 255
42.491207 -54.327412 -1.706201 255
42.688107 -54.320229 -1.7082506 255
42.898701 -54.326225 -1.7093965 255
43.106167 -54.31908 -1.7155718 255
43.30529 -54.320568 -1.7128755 255
43.486523 -54.331196 -1.7087811 255
43.709019 -54.302216 -1.7133998 255
43.826252 -54.318348 -1.713214 255
49.156872 -54.270069 -1.7073761 255
49.294418 -54.262875 -1.6886104 255
49.551708 -54.263802 -1.7135268 255
49.701492 -54.260891 -1.7086761 255
49.900467 -54.256611 -1.7157702 255
50.102524 -54.260834 -1.7138959 255
50.291882 -54.255203 -1.7114645 255
50.514774 -54.252254 -1.7130395 255
50.68993 -54.253536 -1.7158329 255
50.89727 -54.248238 -1.7121843 255
51.084728 -54.247635 -1.7188805 255
51.301468 -54.245804 -1.7088528 255
51.5079 -54.243259 -1.714846 255
51.71579 -54.234573 -1.7113445 255
51.903999 -54.240097 -1.7128655 255
52.089634 -54.234463 -1.7170699 255
52.294014 -54.225182 -1.7119673 255
52.47245 -54.239414 -1.7128243 255
52.699013 -54.226223 -1.7142073 255
52.813019 -54.223923 -1.7162693 255
57.742058 -54.212265 -1.7120552 255
84.547318 -54.363747 -1.6946025 255
84.678497 -54.368984 -1.6905481 255
84.918938 -54.364796 -1.7198199 255
85.106941 -54.36071 -1.7132553 255
85.290154 -54.363255 -1.7105132 255
85.524162 -54.370869 -1.7160406 255
85.696945 -54.366566 -1.7162427 255
85.90522 -54.365219 -1.7124476 255
86.103424 -54.362309 -1.7135977 255
86.29287 -54.365303 -1.7175899 255
86.496101 -54.358337 -1.7159448 255
86.699966 -54.359501 -1.7168822 255
86.898735 -54.353008 -1.7144632 255
87.113823 -54.358395 -1.7160095 255
87.287834 -54.359642 -1.7159231 255
87.504662 -54.360573 -1.7183539 255
87.680481 -54.340107 -1.7075514 255
87.881493 -54.260944 -1.7044793 255
88.123093 -54.246597 -1.7154438 255
88.307755 -54.253033 -1.7109571 255
88.507523 -54.246281 -1.716262 255
88.696945 -54.242924 -1.7132121 255
88.90274 -54.254093 -1.7114244 255
89.092888 -54.243977 -1.7149881 255
89.286484 -54.243603 -1.7119712 255
89.512115 -54.241467 -1.7102321 255
89.677635 -54.24136 -1.7161394 255
89.918076 -54.239002 -1.7158203 255
90.087639 -54.237617 -1.714377 255
90.299522 -54.241657 -1.7044646 255
90.503998 -54.233288 -1.7181978 255
90.677078 -54.235035 -1.7170851 255
90.855812 -54.234211 -1.7154394 255
95.512749 -54.342907 -1.6919167 255
95.700317 -54.302185 -1.71538 255
95.915695 -54.293552 -1.7101438 255
96.103226 -54.306267 -1.7168288 255
96.27887 -54.310619 -1.715885 255
149.68353 -54.306034 -1.6985824 255
149.8105 -54.392746 -1.6966447 255
150.14578 -54.319283 -1.7294565 255
150.3373 -54.317539 -1.7265273 255
150.50352 -54.287312 -1.6801324 255
150.90814 -54.383141 -1.7302575 255
151.15132 -54.281536 -1.66005 255
151.45821 -54.363857 -1.7624 255
151.6808 -54.217033 -1.6959801 255
151.84943 -54.348755 -1.7571262 255
152.37312 -54.256676 -1.7140732 255
152.5062 -54.303444 -1.6929525 255
152.70514 -54.300735 -1.7010772 255
152.82675 -54.312897 -1.7070309 255
153.33719 -54.282925 -1.7324911 255
153.96068 -54.244457 -1.7393545 255
154.10144 -54.318676 -1.6876919 255
154.27798 -54.242455 -1.7621654 255
154.79056 -54.287357 -1.6666298 255
154.87086 -54.311623 -1.7200475 255
155.09814 -54.296867 -1.7069728 255
-15.037817 -54.006973 -1.6738284 255
-13.886298 -54.192245 -1.6838421 255
-13.480313 -54.180614 -1.6830997 255
-13.152892 -54.193146 -1.6832169 255
-12.997825 -54.197613 -1.6846352 255
-12.6442 -54.035545 -1.6414671 255
-12.458318 -54.101654 -1.6798526 255
-12.313518 -54.090763 -1.6818222 255
-12.123346 -54.104252 -1.6783303 255
-11.908275 -54.095024 -1.6875695 255
-11.682367 -54.096447 -1.6743603 255
-11.487759 -54.097332 -1.6910399 255
-11.286787 -54.086273 -1.6922725 255
-11.105026 -54.096146 -1.6864454 255
-10.889533 -54.098404 -1.6922431 255
-10.683681 -54.09692 -1.6910108 255
-10.523651 -54.094475 -1.6929164 255
-10.320899 -54.084038 -1.6979605 255
-10.099801 -54.092888 -1.6817601 255
-9.9010601 -54.118637 -1.6850497 255
-9.7195911 -54.095165 -1.7034214 255
18.543526 -54.056683 -1.700353 255
18.716574 -54.048676 -1.710634 255
18.898186 -54.061985 -1.7070775 255
19.105448 -54.061749 -1.7140636 255
19.292112 -54.053169 -1.7042737 255
19.483522 -54.045238 -1.7062508 255
19.718733 -54.062107 -1.7039512 255
19.883783 -54.05471 -1.7108228 255
20.115112 -54.04245 -1.7140511 255
20.310432 -54.055592 -1.7098579 255
20.496212 -54.053947 -1.7087135 255
20.700401 -54.05061 -1.7138691 255
20.909489 -54.046574 -1.7093668 255
21.085976 -54.044792 -1.7082417 255
21.29689 -54.051338 -1.7175676 255
21.496264 -54.051617 -1.712423 255
21.710829 -54.101437 -1.6882465 255
21.936386 -54.152794 -1.6943954 255
22.083891 -54.149986 -1.7137823 255
22.315479 -54.141079 -1.6947454 255
22.505301 -54.152004 -1.7139462 255
22.687477 -54.139282 -1.7164463 255
22.911118 -54.152496 -1.703411 255
23.076838 -54.14584 -1.7143788 255
23.288303 -54.12571 -1.7037007 255
23.48815 -54.143482 -1.7096705 255
23.696001 -54.137634 -1.7047263 255
23.897596 -54.137585 -1.7189009 255
24.107605 -54.152775 -1.6950868 255
24.295301 -54.134315 -1.7155812 255
24.503822 -54.123501 -1.7199388 255
24.70392 -54.139702 -1.7130365 255
24.836943 -54.129997 -1.7116135 255
29.492508 -54.096611 -1.707824 255
29.703018 -54.089138 -1.7189093 255
29.902607 -54.106899 -1.7124044 255
30.075409 -54.104591 -1.71191 255
49.14304 -54.167542 -1.74075 255
49.282829 -54.161976 -1.7109989 255
49.546677 -54.1609 -1.7104927 255
49.705776 -54.155739 -1.7100636 255
49.903858 -54.159908 -1.7157665 255
50.101784 -54.154057 -1.7156904 255
50.301018 -54.152351 -1.7125422 255
50.50964 -54.156384 -1.715461 255
50.70134 -54.147202 -1.7144394 255
50.90696 -54.155312 -1.7135211 255
51.090439 -54.141289 -1.7207226 255
51.300541 -54.143784 -1.7091912 255
51.502586 -54.148781 -1.715011 255
51.711327 -54.137497 -1.710656 255
51.894146 -54.144165 -1.713677 255
52.098129 -54.133686 -1.7164307 255
52.297802 -54.134716 -1.7127306 255
52.491623 -54.136349 -1.7138525 255
52.67881 -54.130859 -1.7147747 255
57.318798 -54.094402 -1.7180438 255
57.493412 -54.083435 -1.7038796 255
57.727287 -54.099987 -1.7023832 255
57.90958 -54.090771 -1.7157956 255
58.102444 -54.086781 -1.7152947 255
58.304256 -54.085209 -1.7117846 255
58.494839 -54.088398 -1.7211045 255
58.70055 -54.076923 -1.7119006 255
58.890865 -54.079849 -1.7183909 255
59.086071 -54.079277 -1.7182693 255
59.299313 -54.077721 -1.7171973 255
59.502125 -54.073463 -1.7179761 255
59.687691 -54.071518 -1.7134064 255
59.899464 -54.063747 -1.7175261 255
60.096695 -54.060623 -1.7169201 255
60.292156 -54.061783 -1.7212448 255
60.502689 -54.052296 -1.7051358 255
60.706028 -54.055492 -1.7181978 255
60.860256 -54.05212 -1.7184179 255
65.377106 -54.00132 -1.6755612 255
65.51062 -54.005245 -1.662411 255
65.709534 -54.019779 -1.7065177 255
65.861153 -54.002804 -1.7127248 255
87.734924 -54.106022 -1.6767823 255
87.865204 -54.113167 -1.7102824 255
88.131195 -54.090424 -1.7136493 255
88.285751 -54.102982 -1.7122393 255
88.500404 -54.11404 -1.7160645 255
88.708885 -54.112862 -1.7146853 255
88.899971 -54.094376 -1.7131914 255
89.105736 -54.102318 -1.717183 255
89.297943 -54.110989 -1.7157429 255
89.500351 -54.10165 -1.7092074 255
89.686104 -54.111008 -1.7189608 255
89.897919 -54.107372 -1.7112944 255
90.094093 -54.112389 -1.7161826 255
90.301857 -54.098511 -1.7112147 255
90.491997 -54.096893 -1.7137548 255
90.702698 -54.118496 -1.7168899 255
90.868507 -54.098946 -1.7186804 255
95.532158 -54.066666 -1.6970356 255
95.71122 -54.098766 -1.7011224 255
95.915352 -54.106857 -1.7077425 255
96.108162 -54.09547 -1.7162148 255
96.277763 -54.097866 -1.7171563 255
149.39789 -54.033958 -1.7316674 255
149.53908 -54.043518 -1.6924756 255
149.66824 -54.096409 -1.6920065 255
150.11737 -54.098415 -1.6926852 255
150.59546 -54.024574 -1.6845239 255
150.67589 -54.067825 -1.7051159 255
150.84044 -54.099426 -1.7882767 255
151.03893 -54.078285 -1.6732018 255
151.5645 -54.047394 -1.6933428 255
151.63515 -54.149765 -1.6949455 255
152.383 -54.082954 -1.6900785 255
152.52011 -54.12727 -1.6971346 255
152.70547 -54.104656 -1.7081959 255
152.98763 -54.031548 -1.6802808 255
153.00864 -54.08989 -1.6798198 255
153.91785 -54.102684 -1.7226148 255
154.08824 -54.08968 -1.7014265 255
154.27414 -54.114624 -1.7602943 255
154.50404 -54.081615 -1.7496386 255
154.77599 -54.124653 -1.6905575 255
154.91528 -54.091454 -1.7144661 255
155.06789 -54.123764 -1.7064605 255
155.20801 -54.191177 -1.7121365 255
-15.622896 -53.837891 -1.64363 255
-15.518667 -53.857323 -1.6600423 255
-15.29306 -53.877552 -1.6717564 255
-15.053124 -53.902649 -1.6652715 255
-14.992747 -53.82893 -1.6702919 255
-14.713463 -53.81628 -1.6427605 255
-14.497091 -53.847851 -1.6685237 255
-14.300129 -53.83617 -1.6672348 255
-14.174778 -53.83947 -1.6698172 255
-13.967867 -53.879265 -1.6839875 255
-13.688569 -53.84037 -1.6739249 255
-13.556328 -53.826283 -1.6709019 255
-13.363469 -53.837669 -1.6837238 255
-13.098597 -53.844559 -1.6774317 255
-12.899582 -53.822613 -1.6774353 255
-12.454771 -53.923744 -1.6803396 255
-12.293639 -53.914494 -1.6815016 255
-12.092152 -53.888103 -1.6824627 255
-11.911982 -53.928658 -1.683912 255
-11.713178 -53.907341 -1.6886421 255
-11.510354 -53.913204 -1.6913855 255
-11.283605 -53.902561 -1.6908156 255
-11.114088 -53.910168 -1.688254 255
-10.892701 -53.908035 -1.6913084 255
-10.696131 -53.903103 -1.6937569 255
-10.545114 -53.90247 -1.6950948 255
-10.296238 -53.90287 -1.6998708 255
-10.108695 -53.89835 -1.6929929 255
-9.9048414 -53.915569 -1.6874832 255
-9.7165279 -53.900631 -1.6847446 255
-9.5551958 -53.95488 -1.6364961 255
18.522882 -53.885567 -1.6796467 255
18.740877 -53.921383 -1.7065306 255
18.906847 -53.892292 -1.7130933 255
19.107273 -53.892441 -1.7091589 255
19.291765 -53.894989 -1.7041088 255
19.512848 -53.887108 -1.7069168 255
19.699827 -53.894753 -1.7077763 255
19.899916 -53.903072 -1.7103806 255
20.10387 -53.89259 -1.7136906 255
20.300236 -53.901436 -1.7096264 255
20.499115 -53.894379 -1.7091329 255
20.707645 -53.904949 -1.712128 255
20.888393 -53.896603 -1.7064352 255
21.094677 -53.907558 -1.7119588 255
21.300762 -53.892643 -1.7138842 255
21.49441 -53.878548 -1.7150207 255
21.652796 -53.920338 -1.7121307 255
22.168747 -53.932213 -1.6936657 255
22.263176 -53.944569 -1.7024692 255
22.564972 -53.986217 -1.691524 255
22.653034 -53.980778 -1.7008636 255
23.198074 -53.809402 -1.7013128 255
23.235077 -53.907612 -1.6992292 255
23.71608 -53.924648 -1.7016859 255
24.536469 -53.93758 -1.7024878 255
29.398026 -53.876625 -1.6609691 255
29.488558 -53.906101 -1.6974586 255
29.717016 -53.890636 -1.7235194 255
29.893702 -53.879509 -1.7133895 255
30.085014 -53.877964 -1.7131915 255
30.209433 -53.882809 -1.7159871 255
57.337215 -53.98568 -1.7506387 255
57.511528 -53.9813 -1.7001483 255
57.721493 -53.982269 -1.6981333 255
57.895428 -53.977871 -1.7159531 255
58.123119 -53.979324 -1.7132983 255
58.281429 -53.976063 -1.7136114 255
58.500294 -53.971272 -1.7284657 255
58.711464 -53.970791 -1.7046107 255
58.89616 -53.969719 -1.7191969 255
59.10424 -53.966133 -1.7178563 255
59.323521 -53.969845 -1.7233129 255
59.489803 -53.95863 -1.7146503 255
59.674351 -53.963093 -1.7214098 255
59.891293 -53.955627 -1.7179103 255
60.100441 -53.956512 -1.7181991 255
60.308121 -53.948986 -1.7212878 255
60.475082 -53.946785 -1.7036226 255
60.685665 -53.963261 -1.7135037 255
60.849567 -53.945431 -1.7121125 255
65.329605 -53.921928 -1.6886481 255
65.494286 -53.910057 -1.6638594 255
65.698265 -53.896622 -1.7090614 255
65.907265 -53.909794 -1.7145461 255
66.094666 -53.899494 -1.7141925 255
66.307144 -53.901302 -1.7116802 255
66.485802 -53.896671 -1.7120115 255
66.689445 -53.889267 -1.7096517 255
66.893753 -53.903584 -1.7154711 255
67.085907 -53.885029 -1.7051072 255
67.308815 -53.884468 -1.7123669 255
67.496964 -53.879894 -1.7042068 255
67.708572 -53.874229 -1.718609 255
67.90081 -53.889263 -1.7037344 255
68.097069 -53.866291 -1.7030596 255
68.306854 -53.869038 -1.7154992 255
68.476822 -53.875893 -1.7142155 255
68.68119 -53.859348 -1.7146064 255
68.803314 -53.911552 -1.7078097 255
73.951691 -53.821995 -1.6899822 255
74.114037 -53.818855 -1.6983733 255
74.342056 -53.815704 -1.6899025 255
74.515236 -53.813251 -1.7076739 255
74.692291 -53.81509 -1.7058834 255
74.85968 -53.810165 -1.7040143 255
75.06636 -53.805916 -1.7050295 255
75.301674 -53.806564 -1.7086124 255
75.487236 -53.803539 -1.7108641 255
75.637741 -53.802895 -1.6862414 255
84.495964 -53.835815 -1.7048116 255
84.663139 -53.830265 -1.7180786 255
84.916687 -53.83374 -1.7148048 255
85.100555 -53.8316 -1.7067719 255
85.323036 -53.826111 -1.7215054 255
85.496437 -53.830425 -1.7120457 255
85.736145 -53.83173 -1.7083192 255
85.907967 -53.829765 -1.7164551 255
86.105797 -53.828941 -1.7135099 255
86.305061 -53.827873 -1.7098608 255
86.487572 -53.820934 -1.7190568 255
86.697128 -53.822266 -1.7204334 255
86.905846 -53.820168 -1.7158664 255
87.088165 -53.821518 -1.7161077 255
87.307526 -53.825211 -1.721604 255
87.47834 -53.821648 -1.7144846 255
87.687996 -53.867634 -1.703635 255
87.888588 -53.944946 -1.7197211 255
88.129288 -53.933685 -1.7076612 255
88.305717 -53.9277 -1.7146758 255
88.508247 -53.92271 -1.7145592 255
88.696762 -53.921844 -1.7116678 255
88.901764 -53.920353 -1.7147908 255
89.101372 -53.926586 -1.7154361 255
89.313622 -53.919086 -1.7142357 255
89.500488 -53.913013 -1.7104644 255
89.706673 -53.913933 -1.7185818 255
89.902328 -53.910744 -1.7095602 255
90.104416 -53.906269 -1.7191221 255
90.289322 -53.913521 -1.7101545 255
90.49836 -53.911484 -1.7136066 255
90.710487 -53.908451 -1.7175869 255
90.867233 -53.895966 -1.7157352 255
95.504768 -53.898243 -1.7127787 255
95.697891 -53.89687 -1.6987393 255
95.92128 -53.895363 -1.7078472 255
96.080223 -53.898132 -1.714027 255
96.272308 -53.880417 -1.7170972 255
149.19102 -53.858234 -1.6931661 255
149.34512 -53.889877 -1.7448298 255
149.46928 -53.885872 -1.7007406 255
149.68193 -53.887024 -1.6968111 255
150.15041 -53.824127 -1.7517526 255
150.55342 -53.884327 -1.6853889 255
150.69907 -53.890362 -1.7383707 255
150.90881 -53.886414 -1.7093552 255
151.01598 -53.90641 -1.6985558 255
151.31657 -53.855446 -1.6889619 255
151.49242 -53.886929 -1.7005951 255
151.88901 -53.857128 -1.7861985 255
152.35687 -53.982849 -1.6903359 255
152.58522 -53.958408 -1.7148442 255
152.94756 -53.914783 -1.6815348 255
153.92252 -53.93446 -1.7285757 255
154.01723 -53.959454 -1.7448276 255
154.2674 -53.925068 -1.7576072 255
154.51167 -53.914989 -1.7494208 255
154.89355 -53.966446 -1.6990941 255
155.05687 -53.956425 -1.7339575 255
-15.655184 -53.701126 -1.6465696 255
-15.503536 -53.693966 -1.6631559 255
-15.277742 -53.708469 -1.6598738 255
-15.134581 -53.694603 -1.6704621 255
-14.895047 -53.673615 -1.6632986 255
-14.738247 -53.687927 -1.6635832 255
-14.489356 -53.696774 -1.6662312 255
-14.281683 -53.696861 -1.6624084 255
-14.140922 -53.694489 -1.6786686 255
-13.896345 -53.682583 -1.6868019 255
-13.706764 -53.689373 -1.6685519 255
-13.501287 -53.700294 -1.6662983 255
-13.310841 -53.690071 -1.6830789 255
-13.081389 -53.696503 -1.6726644 255
-12.937956 -53.692032 -1.6726296 255
-12.461597 -53.776932 -1.6678909 255
-12.224359 -53.774326 -1.697821 255
-12.12154 -53.743263 -1.6859127 255
-11.915365 -53.776039 -1.6944058 255
-11.66663 -53.762375 -1.6921558 255
-11.466257 -53.762596 -1.6891286 255
-11.276371 -53.765213 -1.6957537 255
-11.186603 -53.751209 -1.6954362 255
-10.871842 -53.752056 -1.6952392 255
-10.730991 -53.757454 -1.6960448 255
-10.503778 -53.749966 -1.6984675 255
-10.289609 -53.751007 -1.699899 255
-10.079433 -53.755943 -1.7084318 255
-9.9214706 -53.725887 -1.6915241 255
-9.7996149 -53.789036 -1.6908791 255
18.511724 -53.732571 -1.6767673 255
18.724779 -53.732738 -1.6807632 255
18.908817 -53.729057 -1.7149574 255
19.11297 -53.724876 -1.7024664 255
19.301237 -53.71701 -1.6989974 255
19.49868 -53.734562 -1.7068557 255
19.696762 -53.724514 -1.7004155 255
19.900307 -53.732788 -1.7051146 255
20.099001 -53.731667 -1.711364 255
20.295773 -53.723686 -1.7108272 255
20.493584 -53.710915 -1.702786 255
20.71871 -53.722652 -1.705242 255
20.884556 -53.725452 -1.7110051 255
21.103668 -53.71838 -1.7091199 255
21.287743 -53.722374 -1.7072325 255
21.4974 -53.717617 -1.7139652 255
21.654804 -53.677586 -1.6976545 255
21.956497 -53.619251 -1.6828173 255
22.120596 -53.615829 -1.7089585 255
22.289743 -53.631161 -1.7142239 255
22.512266 -53.634125 -1.717299 255
22.72204 -53.618378 -1.7407014 255
22.925766 -53.611874 -1.7074124 255
23.053785 -53.637638 -1.7108197 255
23.279842 -53.609081 -1.7219584 255
23.498819 -53.633606 -1.7034646 255
23.692032 -53.639446 -1.7145157 255
23.903833 -53.607151 -1.72082 255
24.091154 -53.642872 -1.7152317 255
24.290121 -53.620934 -1.7171079 255
24.433271 -53.70887 -1.7122552 255
24.680532 -53.644306 -1.7135527 255
29.394165 -53.685741 -1.6690201 255
29.499582 -53.71199 -1.6979908 255
29.706854 -53.707077 -1.7239735 255
29.901043 -53.680759 -1.711877 255
30.093657 -53.702732 -1.7107325 255
30.20417 -53.702805 -1.7124712 255
65.875511 -53.7883 -1.7740973 255
66.107674 -53.79697 -1.7234744 255
66.345169 -53.794586 -1.7040293 255
66.522041 -53.791691 -1.7218447 255
66.710831 -53.792049 -1.7127408 255
66.882027 -53.791183 -1.7154284 255
67.102394 -53.785156 -1.7013662 255
67.292686 -53.784733 -1.7109375 255
67.53215 -53.781445 -1.7038497 255
67.67382 -53.776325 -1.7157178 255
67.890121 -53.771297 -1.703957 255
68.112892 -53.769917 -1.712366 255
68.296844 -53.76701 -1.7122161 255
68.511459 -53.772423 -1.7125295 255
68.697487 -53.767647 -1.7105844 255
73.953972 -53.726414 -1.6905931 255
74.117683 -53.718521 -1.704855 255
74.331047 -53.713451 -1.7026721 255
74.503159 -53.710903 -1.7078818 255
74.692841 -53.700249 -1.7147564 255
74.907639 -53.712158 -1.7013414 255
75.105431 -53.701817 -1.7112277 255
75.306183 -53.696556 -1.710403 255
75.494553 -53.69384 -1.7104075 255
75.709938 -53.694515 -1.7076012 255
75.886452 -53.689808 -1.7165798 255
76.098175 -53.675354 -1.7011845 255
76.2938 -53.691132 -1.7111795 255
76.500412 -53.684711 -1.7085841 255
76.693024 -53.686134 -1.7071695 255
76.900482 -53.681149 -1.716803 255
77.102623 -53.685463 -1.7053165 255
77.306358 -53.676937 -1.7081832 255
77.47731 -53.667843 -1.7134718 255
80.774017 -53.660641 -1.6600239 255
80.911682 -53.652161 -1.731575 255
81.130013 -53.653355 -1.6999829 255
81.295113 -53.643456 -1.7143964 255
81.511017 -53.64534 -1.6981273 255
81.693092 -53.640759 -1.7165016 255
81.875809 -53.639523 -1.7057008 255
82.104912 -53.638527 -1.7106082 255
82.302338 -53.635578 -1.7089587 255
82.497688 -53.633469 -1.7200468 255
82.707077 -53.628426 -1.7063155 255
82.888512 -53.63435 -1.7147061 255
83.097069 -53.628494 -1.7129822 255
83.294975 -53.62653 -1.7103161 255
83.504143 -53.624786 -1.7141999 255
83.696663 -53.620213 -1.7133265 255
83.901764 -53.613785 -1.7106824 255
84.096375 -53.609608 -1.7169977 255
84.318726 -53.617489 -1.7104876 255
84.500618 -53.697399 -1.7071823 255
84.67601 -53.690178 -1.7244693 255
84.91188 -53.68969 -1.7125204 255
85.099586 -53.695114 -1.7093339 255
85.309486 -53.705917 -1.7126765 255
85.479362 -53.692547 -1.7163287 255
85.705002 -53.696259 -1.7108397 255
85.903839 -53.685795 -1.711719 255
86.098091 -53.706142 -1.7182255 255
86.302002 -53.706104 -1.7068 255
86.497063 -53.699688 -1.7175531 255
86.706566 -53.689476 -1.7119579 255
86.900414 -53.696907 -1.709934 255
87.090904 -53.699802 -1.7137024 255
87.304955 -53.693592 -1.7198455 255
87.504639 -53.712418 -1.7142638 255
87.665627 -53.673141 -1.7142724 255
95.517914 -53.690224 -1.7263157 255
95.705482 -53.706329 -1.7042708 255
95.910194 -53.714462 -1.704284 255
96.102776 -53.719891 -1.7153348 255
96.267891 -53.697666 -1.7166826 255
149.1823 -53.722286 -1.7490637 255
149.34479 -53.693989 -1.7175659 255
149.52821 -53.693417 -1.7043957 255
149.67619 -53.709732 -1.7091494 255
150.1424 -53.676369 -1.7359319 255
150.37996 -53.660675 -1.7372093 255
150.48553 -53.726803 -1.6846496 255
150.71399 -53.698601 -1.7337583 255
150.91637 -53.704082 -1.7051404 255
151.18585 -53.614723 -1.6868834 255
151.2981 -53.692039 -1.6845119 255
151.47269 -53.721092 -1.7289405 255
151.73732 -53.652401 -1.7984787 255
151.89337 -53.697769 -1.7725796 255
152.66609 -53.658749 -1.6817179 255
152.8793 -53.741058 -1.6754884 255
153.02466 -53.682495 -1.6726481 255
153.35977 -53.636368 -1.7914412 255
154.51915 -53.74728 -1.7493845 255
154.76471 -53.601654 -1.738544 255
155.01797 -53.632626 -1.694638 255
-15.491668 -53.524319 -1.6615655 255
-15.280909 -53.516827 -1.6604801 255
-15.120272 -53.504204 -1.6736574 255
-14.908992 -53.506397 -1.6546533 255
-14.672819 -53.508533 -1.6693137 255
-14.488145 -53.511307 -1.6627158 255
-14.339723 -53.523975 -1.6641643 255
-14.094601 -53.517056 -1.6814624 255
-13.886747 -53.495983 -1.6626487 255
-13.698672 -53.508228 -1.6778945 255
-13.470754 -53.494736 -1.6681085 255
-13.285856 -53.502644 -1.6731682 255
-13.10053 -53.510715 -1.678391 255
-12.94243 -53.500156 -1.6783996 255
-12.336224 -53.429848 -1.6861961 255
-11.89464 -53.415295 -1.6573193 255
-11.748993 -53.4226 -1.6912248 255
-11.4632 -53.416687 -1.6689746 255
-10.929132 -53.471775 -1.6699268 255
-10.797674 -53.427601 -1.6518327 255
-10.481317 -53.479015 -1.6873572 255
-10.324683 -53.4548 -1.6808776 255
-9.8587294 -53.494488 -1.7023191 255
-9.7724876 -53.436176 -1.6806995 255
18.951191 -53.562523 -1.6953622 255
19.134275 -53.536118 -1.6969515 255
19.25349 -53.563164 -1.7000444 255
19.493008 -53.530823 -1.7078688 255
19.982399 -53.433453 -1.69688 255
20.088242 -53.524113 -1.7001485 255
20.274149 -53.506577 -1.699461 255
20.564468 -53.551746 -1.6955169 255
20.710577 -53.538502 -1.701889 255
21.356258 -53.485443 -1.6909506 255
21.447929 -53.543396 -1.6963086 255
21.695038 -53.495033 -1.6786581 255
21.915571 -53.491631 -1.6912125 255
22.124863 -53.504135 -1.7071851 255
22.295033 -53.489277 -1.7122126 255
22.491152 -53.502758 -1.7147913 255
22.709877 -53.481525 -1.7220134 255
22.898966 -53.499969 -1.704473 255
23.111506 -53.490181 -1.7116109 255
23.307272 -53.502586 -1.7156273 255
23.506927 -53.502014 -1.7054933 255
23.696888 -53.49118 -1.7145443 255
23.907413 -53.500061 -1.7100698 255
24.088171 -53.481483 -1.7099538 255
24.289331 -53.505878 -1.7089158 255
24.496248 -53.488682 -1.7173816 255
24.699535 -53.489162 -1.7204664 255
24.84977 -53.504665 -1.7132654 255
29.383215 -53.501434 -1.6747115 255
29.538219 -53.491089 -1.7062352 255
29.735792 -53.476883 -1.7184169 255
29.89473 -53.511562 -1.7144578 255
30.074001 -53.50325 -1.7112045 255
30.210205 -53.535175 -1.7093366 255
33.906963 -53.438263 -1.7876506 255
75.273003 -53.582409 -1.7105058 255
75.572693 -53.591637 -1.7155204 255
75.738983 -53.579407 -1.7217337 255
75.912468 -53.598721 -1.7157469 255
76.134003 -53.594151 -1.7075846 255
76.295006 -53.588608 -1.7120825 255
76.526947 -53.585289 -1.7107584 255
76.691467 -53.585152 -1.7101779 255
76.923683 -53.586044 -1.7155411 255
77.100632 -53.575294 -1.7035069 255
77.291954 -53.574574 -1.7120268 255
77.493111 -53.583199 -1.7149178 255
77.614723 -53.518486 -1.7190232 255
80.754456 -53.55912 -1.6597794 255
80.934662 -53.548634 -1.7289618 255
81.119484 -53.544701 -1.7036505 255
81.30088 -53.555145 -1.7121307 255
81.488426 -53.53484 -1.702437 255
81.696251 -53.540825 -1.7165893 255
81.907074 -53.54002 -1.7084124 255
82.116859 -53.531933 -1.7086223 255
82.303299 -53.538597 -1.7131428 255
82.494415 -53.523792 -1.7170657 255
82.707565 -53.53754 -1.7029165 255
82.901138 -53.523254 -1.716469 255
83.097252 -53.524963 -1.7133965 255
83.286774 -53.518085 -1.7119037 255
83.497139 -53.517056 -1.7109263 255
83.707161 -53.520233 -1.7058222 255
83.909348 -53.519474 -1.7146132 255
84.083229 -53.504898 -1.7145517 255
84.300568 -53.507702 -1.714501 255
84.512489 -53.523006 -1.7319674 255
84.712784 -53.519447 -1.7179528 255
84.928444 -53.524197 -1.7155579 255
85.101036 -53.519444 -1.7108707 255
85.302628 -53.52029 -1.7118577 255
85.497208 -53.516083 -1.7188747 255
85.697014 -53.516861 -1.7064117 255
85.895042 -53.51519 -1.7140028 255
86.091797 -53.510281 -1.7167233 255
86.300552 -53.513294 -1.7097046 255
86.506653 -53.505844 -1.7188034 255
86.712219 -53.502811 -1.7114875 255
86.895187 -53.515919 -1.7143501 255
87.097237 -53.50523 -1.7187436 255
87.293091 -53.505695 -1.7148435 255
87.500206 -53.517197 -1.7168624 255
87.668457 -53.516289 -1.7161554 255
95.522629 -53.500019 -1.7217065 255
95.736198 -53.501179 -1.6985844 255
95.907372 -53.498569 -1.707296 255
96.099831 -53.489117 -1.7154502 255
96.278999 -53.486897 -1.7155203 255
96.792511 -53.424889 -1.7077854 255
96.805855 -53.450195 -1.7078344 255
97.938171 -53.434906 -1.7235149 255
98.620178 -53.429039 -1.7010083 255
100.44518 -53.433826 -1.7233915 255
101.2053 -53.419548 -1.7096857 255
149.1405 -53.493958 -1.6969329 255
149.28299 -53.546959 -1.693908 255
149.52541 -53.550076 -1.7080114 255
149.7025 -53.507366 -1.7206357 255
149.94772 -53.426132 -1.6737407 255
150.10947 -53.515636 -1.7335136 255
150.39006 -53.496731 -1.7383045 255
150.48268 -53.508671 -1.677671 255
150.70631 -53.537701 -1.727542 255
150.8824 -53.543812 -1.7105819 255
151.15318 -53.554871 -1.6864865 255
151.30711 -53.552876 -1.6791067 255
151.52821 -53.506023 -1.7586867 255
151.88678 -53.49057 -1.75258 255
152.39061 -53.538776 -1.7343651 255
152.51868 -53.463627 -1.6849949 255
152.61382 -53.503441 -1.6936243 255
152.94783 -53.493797 -1.6735981 255
153.38477 -53.531921 -1.7930309 255
153.40988 -53.425549 -1.7946923 255
153.65392 -53.452648 -1.6843551 255
153.83153 -53.465179 -1.6811004 255
154.59782 -53.411827 -1.6885661 255
154.75049 -53.475109 -1.6996571 255
154.93889 -53.458263 -1.6896232 255
155.03696 -53.496552 -1.7015319 255
-15.497504 -53.381805 -1.6599488 255
-15.372943 -53.363453 -1.6733705 255
-15.085143 -53.362637 -1.6731906 255
-14.963614 -53.363956 -1.6638246 255
-14.615948 -53.326809 -1.6820675 255
-14.524649 -53.357616 -1.676065 255
-14.068093 -53.361908 -1.6595362 255
-13.94347 -53.348183 -1.6767248 255
-13.640633 -53.368633 -1.6906502 255
-13.575567 -53.335514 -1.6841956 255
-13.302304 -53.358906 -1.6665989 255
-13.087638 -53.339848 -1.6781298 255
-12.919317 -53.352203 -1.6796827 255
-12.463933 -53.302731 -1.6794127 255
-12.317486 -53.288311 -1.6861202 255
-12.054937 -53.284966 -1.6865264 255
-11.915635 -53.266994 -1.676271 255
-11.688241 -53.284004 -1.6816244 255
-11.50129 -53.281551 -1.6895423 255
-11.285548 -53.280933 -1.6909157 255
-11.142342 -53.253578 -1.6883333 255
-10.92143 -53.274055 -1.6940176 255
-10.68919 -53.264305 -1.6868038 255
-10.488919 -53.282433 -1.6878412 255
-10.327909 -53.263859 -1.6994169 255
-10.081422 -53.248787 -1.6892829 255
-9.8906116 -53.296822 -1.6850451 255
-9.7384605 -53.249756 -1.6954128 255
18.685555 -53.212097 -1.7470261 255
18.850193 -53.204803 -1.7459885 255
19.060478 -53.210373 -1.7082351 255
19.323952 -53.219189 -1.7436829 255
19.589262 -53.209961 -1.7621942 255
19.668453 -53.21714 -1.7096689 255
19.936337 -53.217766 -1.7454677 255
20.153231 -53.363956 -1.6978575 255
20.338087 -53.21209 -1.7109592 255
20.539135 -53.209496 -1.7345619 255
21.168661 -53.214336 -1.7104354 255
21.218878 -53.228649 -1.7107439 255
21.688469 -53.30312 -1.6829101 255
21.914997 -53.29385 -1.7171268 255
22.11763 -53.309448 -1.7004515 255
22.310095 -53.324718 -1.7125103 255
22.49025 -53.304691 -1.71349 255
22.701048 -53.339417 -1.7187812 255
22.891804 -53.309231 -1.7102334 255
23.114857 -53.31292 -1.7099211 255
23.310595 -53.317013 -1.7159746 255
23.49765 -53.32151 -1.7052649 255
23.713499 -53.323677 -1.7127048 255
23.907402 -53.30941 -1.7087547 255
24.098156 -53.323307 -1.7106293 255
24.295424 -53.310726 -1.7110733 255
24.497414 -53.318775 -1.7194428 255
24.699116 -53.319817 -1.7193924 255
24.833761 -53.326992 -1.7117985 255
29.361847 -53.298611 -1.6851426 255
29.532114 -53.297783 -1.6979575 255
29.738703 -53.313515 -1.7120681 255
29.900373 -53.307892 -1.7152512 255
30.082766 -53.330517 -1.7120427 255
30.267366 -53.304062 -1.7110401 255
33.131321 -53.207153 -1.655952 255
33.2831 -53.221397 -1.7294773 255
33.526012 -53.234219 -1.7054981 255
33.686405 -53.246235 -1.695208 255
33.913765 -53.255146 -1.7103055 255
34.096523 -53.280785 -1.7083358 255
34.291283 -53.286003 -1.7126158 255
34.426353 -53.328384 -1.710749 255
86.097565 -53.398758 -1.7118568 255
86.545265 -53.397823 -1.6909683 255
87.09803 -53.395031 -1.7198687 255
87.220352 -53.396923 -1.6903473 255
87.491158 -53.396164 -1.7150131 255
87.722359 -53.288383 -1.7397293 255
87.936165 -53.291451 -1.7040437 255
88.116913 -53.301617 -1.711234 255
88.289581 -53.293102 -1.7155745 255
88.490906 -53.292301 -1.7073958 255
88.70031 -53.282684 -1.7169042 255
88.904739 -53.287758 -1.7123092 255
89.114044 -53.283581 -1.7052581 255
89.296967 -53.293274 -1.7146698 255
89.479408 -53.288319 -1.712384 255
89.714294 -53.277412 -1.7158183 255
89.889397 -53.273808 -1.7146808 255
90.107193 -53.276482 -1.7061418 255
90.296265 -53.294022 -1.7200857 255
90.479546 -53.270657 -1.7121119 255
90.686821 -53.264908 -1.713168 255
90.869446 -53.263393 -1.7126757 255
95.386185 -53.304413 -1.7501497 255
95.518471 -53.305027 -1.7071779 255
95.720123 -53.297279 -1.6983098 255
95.909027 -53.295788 -1.709143 255
96.097786 -53.303085 -1.7225831 255
96.29435 -53.303219 -1.7055236 255
96.491554 -53.289497 -1.7123755 255
96.69651 -53.289532 -1.7176943 255
96.910843 -53.296455 -1.7055588 255
97.111679 -53.290028 -1.7163481 255
97.308159 -53.286354 -1.720999 255
97.498802 -53.284557 -1.7035217 255
97.70108 -53.288475 -1.7125646 255
97.910507 -53.284878 -1.7130024 255
98.100327 -53.284195 -1.712768 255
98.296982 -53.266453 -1.7030743 255
98.499329 -53.275787 -1.7184266 255
98.683159 -53.290607 -1.7115343 255
98.896301 -53.254238 -1.7030618 255
99.095818 -53.274498 -1.7163355 255
99.291267 -53.266125 -1.708747 255
99.491692 -53.261097 -1.7141032 255
99.710548 -53.273388 -1.7112639 255
99.895958 -53.261887 -1.7069387 255
100.10371 -53.253326 -1.7087435 255
100.30027 -53.262951 -1.7132536 255
100.487 -53.251015 -1.7158699 255
100.71008 -53.251389 -1.711183 255
100.88616 -53.256809 -1.7158555 255
101.1086 -53.242908 -1.7107054 255
101.27696 -53.249168 -1.7068357 255
101.50673 -53.256371 -1.709828 255
101.68207 -53.237206 -1.7124332 255
101.87652 -53.244953 -1.7109778 255
102.10001 -53.23679 -1.7152362 255
102.28596 -53.238937 -1.7036678 255
102.47743 -53.239498 -1.7236117 255
102.71685 -53.22961 -1.7119969 255
102.89166 -53.232368 -1.7100397 255
103.10712 -53.228817 -1.7055091 255
103.279 -53.224667 -1.7156532 255
103.46636 -53.224609 -1.7155037 255
103.69327 -53.217434 -1.7131789 255
103.9057 -53.220295 -1.7136395 255
104.11253 -53.22229 -1.7008657 255
104.29577 -53.216381 -1.7109756 255
104.5019 -53.214149 -1.7094518 255
104.70192 -53.216812 -1.7005938 255
104.88442 -53.211399 -1.7215816 255
105.08263 -53.207417 -1.7134793 255
105.29095 -53.207088 -1.6963421 255
105.51447 -53.203163 -1.7258165 255
105.69978 -53.204559 -1.7132047 255
121.48236 -53.260406 -1.6367408 255
149.55659 -53.306435 -1.6909988 255
150.06285 -53.240917 -1.6828622 255
150.39748 -53.362339 -1.7393556 255
150.47905 -53.302208 -1.6487968 255
150.85887 -53.20557 -1.7738628 255
151.08006 -53.308716 -1.6881146 255
151.77699 -53.222054 -1.67943 255
151.83287 -53.285419 -1.6813723 255
152.37421 -53.308624 -1.7024225 255
152.52954 -53.299564 -1.6944692 255
152.61389 -53.308544 -1.6960192 255
152.88707 -53.341293 -1.6747471 255
153.51114 -53.290569 -1.7247901 255
153.72606 -53.332523 -1.6788564 255
153.93457 -53.366508 -1.7613814 255
154.01442 -53.263489 -1.7702985 255
154.33382 -53.296474 -1.7615151 255
154.56404 -53.278095 -1.6992507 255
